ply
format ascii 1.0
element vertex 1436
property double x
property double y
property double z
element face 0
property list uchar int vertex_indices
end_header
-0.0676807 -0.0176603 -0.0189078 
-0.0677209 -0.0176195 -0.018128 
-0.0675982 -0.0175958 -0.0175243 
-0.067557 -0.0175635 -0.0168326 
-0.0678414 -0.0174968 -0.0157888 
-0.0678001 -0.0174645 -0.0150971 
-0.0676775 -0.0174408 -0.0144933 
-0.0675548 -0.017417 -0.0138896 
-0.0674322 -0.0173933 -0.0132859 
-0.067228 -0.0173783 -0.0127703 
-0.067024 -0.0173631 -0.0122546 
-0.0668198 -0.0173479 -0.0117389 
-0.0666157 -0.0173328 -0.0112232 
-0.066493 -0.0173091 -0.0106195 
-0.0662075 -0.0173026 -0.0101919 
-0.065922 -0.017296 -0.00976421 
-0.0656365 -0.0172895 -0.00933662 
-0.065351 -0.0172829 -0.00890895 
-0.0651469 -0.0172678 -0.00839325 
-0.0650242 -0.017244 -0.00778957 
-0.0649016 -0.0172204 -0.00718583 
-0.0649417 -0.0171795 -0.00640608 
-0.0649819 -0.0171386 -0.00562633 
-0.0647778 -0.0171234 -0.00511069 
-0.0646551 -0.0170997 -0.00450695 
-0.064451 -0.0170846 -0.00399132 
-0.0642469 -0.0170695 -0.00347561 
-0.0640429 -0.0170543 -0.0029599 
-0.0637573 -0.0170478 -0.00253231 
-0.0634718 -0.0170413 -0.00210464 
-0.0632677 -0.0170261 -0.00158893 
-0.0629008 -0.0170281 -0.0012493 
-0.0626152 -0.0170216 -0.00082171 
-0.0623297 -0.0170151 -0.000394043 
-0.0619627 -0.0170171 -5.44142e-05 
-0.0615958 -0.0170192 0.000285215 
-0.0613103 -0.0170126 0.000712882 
-0.0609433 -0.0170146 0.00105251 
-0.0605764 -0.0170167 0.00139214 
-0.0602095 -0.0170187 0.00173177 
-0.0598425 -0.0170208 0.0020714 
-0.0593941 -0.0170314 0.00232299 
-0.0590272 -0.0170335 0.00266262 
-0.0586602 -0.0170355 0.00300225 
-0.0582933 -0.0170375 0.00334187 
-0.0578449 -0.0170481 0.00359346 
-0.0575594 -0.0170416 0.00402113 
-0.0571925 -0.0170436 0.00436076 
-0.0567441 -0.0170542 0.00461235 
-0.0563771 -0.0170562 0.00495198 
-0.0560102 -0.0170583 0.00529161 
-0.0555619 -0.0170689 0.00554327 
-0.0551949 -0.017071 0.0058829 
-0.0547466 -0.0170816 0.00613449 
-0.0543796 -0.0170836 0.00647412 
-0.0539312 -0.0170943 0.00672571 
-0.0534828 -0.0171049 0.0069773 
-0.0529531 -0.0171241 0.00714092 
-0.0525861 -0.0171261 0.00748055 
-0.0520563 -0.0171454 0.0076441 
-0.0516894 -0.0171474 0.00798373 
-0.051241 -0.0171581 0.00823532 
-0.0507926 -0.0171686 0.00848691 
-0.0502629 -0.0171879 0.00865054 
-0.0497331 -0.017207 0.00881409 
-0.0492847 -0.0172177 0.00906568 
-0.0488364 -0.0172283 0.00931734 
-0.0483065 -0.0172476 0.00948089 
-0.0477768 -0.0172667 0.00964452 
-0.0473284 -0.0172774 0.00989611 
-0.0467986 -0.0172966 0.0100597 
-0.0463502 -0.0173072 0.0103112 
-0.045739 -0.017335 0.0103868 
-0.0451278 -0.0173628 0.0104624 
-0.0445166 -0.0173905 0.0105379 
-0.0437425 -0.0174355 0.0104374 
-0.0428056 -0.0174977 0.0101609 
-0.0421944 -0.0175255 0.0102365 
-0.0416646 -0.0175447 0.0104001 
-0.0411348 -0.0175639 0.0105636 
-0.040605 -0.0175831 0.0107272 
-0.0400752 -0.0176024 0.0108908 
-0.0395454 -0.0176215 0.0110544 
-0.0390157 -0.0176408 0.011218 
-0.0384858 -0.0176599 0.0113815 
-0.0379561 -0.0176792 0.0115452 
-0.0374263 -0.0176983 0.0117087 
-0.0367336 -0.0177348 0.0116963 
-0.036041 -0.0177712 0.0116838 
-0.0354298 -0.0177989 0.0117593 
-0.0339229 -0.0179212 0.0108666 
-0.0331488 -0.0179661 0.0107661 
-0.032619 -0.0179854 0.0109297 
-0.0320078 -0.0180132 0.0110053 
-0.0313966 -0.018041 0.0110808 
-0.0307039 -0.0180774 0.0110683 
-0.0299299 -0.0181224 0.0109679 
-0.0292373 -0.0181587 0.0109554 
-0.0283004 -0.0182208 0.0106789 
-0.0258164 -0.0184461 0.00872986 
-0.0254495 -0.0184482 0.00906949 
-0.0249197 -0.0184673 0.00923312 
-0.0244713 -0.018478 0.00948471 
-0.0238601 -0.0185058 0.00956022 
-0.0232489 -0.0185336 0.0096358 
-0.0227191 -0.0185527 0.00979935 
-0.0221079 -0.0185806 0.00987494 
-0.0214152 -0.018617 0.00986249 
-0.0205597 -0.0186705 0.00967395 
-0.01946 -0.0187498 0.00922138 
-0.0188488 -0.0187776 0.00929697 
-0.0181561 -0.018814 0.00928444 
-0.017382 -0.0188589 0.00918395 
-0.0155495 -0.0190156 0.00793917 
-0.0147754 -0.0190606 0.00783868 
-0.0137571 -0.0191313 0.00747414 
-0.0129016 -0.0191848 0.00728561 
-0.0125347 -0.0191868 0.00762524 
-0.0120049 -0.019206 0.00778879 
-0.0115565 -0.0192167 0.00804045 
-0.0111896 -0.0192187 0.00838008 
-0.010904 -0.0192122 0.00880768 
-0.0106185 -0.0192056 0.00923534 
-0.010333 -0.019199 0.00966301 
-0.0100475 -0.0191926 0.0100907 
-0.00984337 -0.0191774 0.0106063 
-0.00955786 -0.0191708 0.011034 
-0.00935379 -0.0191558 0.0115497 
-0.00906829 -0.0191492 0.0119774 
-0.00878271 -0.0191426 0.0124049 
-0.00857864 -0.0191275 0.0129207 
-0.00829314 -0.019121 0.0133483 
-0.008089 -0.0191058 0.013864 
-0.00788493 -0.0190907 0.0143797 
-0.00768086 -0.0190756 0.0148954 
-0.00747672 -0.0190605 0.015411 
-0.00719122 -0.0190539 0.0158387 
-0.00690571 -0.0190473 0.0162663 
-0.00670157 -0.0190322 0.016782 
-0.0064975 -0.0190171 0.0172977 
-0.006212 -0.0190105 0.0177253 
-0.00600786 -0.0189954 0.018241 
-0.00572235 -0.0189889 0.0186686 
-0.00535541 -0.0189909 0.0190083 
-0.0050699 -0.0189844 0.0194359 
-0.00470296 -0.0189864 0.0197756 
-0.00433601 -0.0189884 0.0201152 
-0.00388763 -0.0189991 0.0203668 
-0.00343925 -0.0190096 0.0206184 
-0.00307231 -0.0190117 0.020958 
-0.00254256 -0.0190309 0.0211216 
-0.00209417 -0.0190416 0.0213732 
-0.00156435 -0.0190607 0.0215368 
-0.00111597 -0.0190714 0.0217884 
-0.000586221 -0.0190906 0.021952 
-5.64014e-05 -0.0191098 0.0221155 
0.000554787 -0.0191376 0.0221911 
0.00100317 -0.0191483 0.0224427 
0.00153292 -0.0191674 0.0226063 
0.00230698 -0.0192124 0.0225058 
0.00299968 -0.0192488 0.0224933 
0.00377374 -0.0192938 0.0223928 
0.00462918 -0.0193473 0.0222044 
0.005159 -0.0193665 0.0223679 
0.00577018 -0.0193943 0.0224435 
0.0063 -0.0194135 0.0226071 
0.00674839 -0.0194241 0.0228586 
0.00727814 -0.0194434 0.0230223 
0.00780796 -0.0194626 0.0231858 
0.00841915 -0.0194904 0.0232614 
0.00894897 -0.0195096 0.023425 
0.00956015 -0.0195374 0.0235005 
0.0102528 -0.0195738 0.0234881 
0.0111897 -0.0196359 0.0232115 
0.0121267 -0.0196981 0.022935 
0.0127378 -0.0197258 0.0230105 
0.0132677 -0.0197451 0.0231741 
0.0137974 -0.0197642 0.0233377 
0.0144087 -0.0197921 0.0234132 
0.0150199 -0.0198199 0.0234888 
0.0157125 -0.0198562 0.0234764 
0.0163335 -0.0198869 0.0235413 
0.0171322 -0.0199393 0.0234142 
0.0177581 -0.0199715 0.0234738 
0.0187293 -0.0200439 0.0231601 
0.0197006 -0.0201164 0.0228464 
0.0208446 -0.0202089 0.022346 
0.0232835 -0.0204523 0.0204455 
0.0237368 -0.0204644 0.0206918 
0.024449 -0.0205066 0.0206581 
0.0251613 -0.0205489 0.0206244 
0.0257873 -0.0205811 0.020684 
0.0265859 -0.0206334 0.020557 
0.0272982 -0.0206757 0.0205232 
0.0282694 -0.0207481 0.0202095 
0.0291544 -0.0208105 0.0199891 
0.0310753 -0.0209935 0.0186487 
0.0315286 -0.0210056 0.018895 
0.0320682 -0.0210278 0.019048 
0.0329531 -0.0210902 0.0188275 
0.0340108 -0.0211727 0.0184204 
0.0351547 -0.0212652 0.0179201 
0.0362986 -0.0213578 0.0174197 
0.0372699 -0.0214302 0.0171059 
0.0417808 -0.0219149 0.0129654 
0.0422341 -0.021927 0.0132117 
0.043119 -0.0219894 0.0129913 
0.0488386 -0.0226148 0.00754409 
0.0504142 -0.0227577 0.00657694 
-0.0637213 -0.0180629 -0.0368058 
-0.0633544 -0.018065 -0.0364662 
-0.0647786 -0.0178799 -0.0341901 
-0.0647374 -0.017848 -0.0334984 
-0.0650218 -0.0177819 -0.0324546 
-0.0653877 -0.0177075 -0.0313228 
-0.0665677 -0.0175479 -0.0293108 
-0.066445 -0.0175245 -0.0287072 
-0.0674622 -0.017382 -0.0268712 
-0.0672581 -0.017367 -0.0263555 
-0.0679496 -0.0172586 -0.0248716 
-0.0679897 -0.0172181 -0.024092 
-0.0678671 -0.0171946 -0.0234882 
-0.0679886 -0.0171456 -0.0226205 
-0.0678659 -0.0171221 -0.0220168 
-0.0677432 -0.0170986 -0.0214132 
-0.0680277 -0.0170326 -0.0203694 
-0.0680678 -0.0169922 -0.0195896 
-0.0682708 -0.0169347 -0.0186339 
-0.0682296 -0.0169027 -0.0179422 
-0.0681069 -0.0168792 -0.0173385 
-0.0680656 -0.0168472 -0.0166468 
-0.0681872 -0.0167983 -0.015779 
-0.0682273 -0.0167579 -0.0149993 
-0.0680233 -0.0167429 -0.0144836 
-0.067982 -0.0167109 -0.0137919 
-0.0677779 -0.0166959 -0.0132763 
-0.0675738 -0.0166809 -0.0127606 
-0.0674511 -0.0166575 -0.0121569 
-0.0672469 -0.0166425 -0.0116413 
-0.0669614 -0.016636 -0.0112136 
-0.0668387 -0.0166125 -0.0106099 
-0.0665532 -0.0166062 -0.0101823 
-0.0662677 -0.0165996 -0.00975459 
-0.0659822 -0.0165932 -0.00932699 
-0.0656966 -0.0165868 -0.00889932 
-0.0654111 -0.0165803 -0.00847166 
-0.0653699 -0.0165483 -0.00777995 
-0.0654914 -0.0164993 -0.00691224 
-0.0654502 -0.0164673 -0.00622053 
-0.0654089 -0.0164353 -0.00552882 
-0.0652048 -0.0164204 -0.00501311 
-0.0650821 -0.0163969 -0.00440944 
-0.064878 -0.016382 -0.00389381 
-0.0646739 -0.016367 -0.00337818 
-0.0644698 -0.0163521 -0.00286247 
-0.0641843 -0.0163456 -0.0024348 
-0.0638988 -0.0163391 -0.00200714 
-0.0636132 -0.0163327 -0.00157954 
-0.0633277 -0.0163262 -0.00115187 
-0.0630422 -0.0163197 -0.000724206 
-0.0626752 -0.0163218 -0.000384578 
-0.0623083 -0.0163238 -4.49488e-05 
-0.0620227 -0.0163173 0.000382645 
-0.0617372 -0.0163109 0.000810312 
-0.0613703 -0.0163129 0.00114994 
-0.0610848 -0.0163064 0.00157761 
-0.0607178 -0.0163085 0.00191724 
-0.0602694 -0.016319 0.00216883 
-0.0599025 -0.0163211 0.00250846 
-0.0595355 -0.0163231 0.00284809 
-0.0591686 -0.0163252 0.00318771 
-0.0588017 -0.0163272 0.00352734 
-0.0583533 -0.0163377 0.00377893 
-0.0579863 -0.0163398 0.00411856 
-0.0576194 -0.0163418 0.00445819 
-0.0571711 -0.0163524 0.00470985 
-0.0568041 -0.0163544 0.00504948 
-0.0564372 -0.0163564 0.00538911 
-0.0559888 -0.016367 0.0056407 
-0.0556219 -0.016369 0.00598033 
-0.0551735 -0.0163796 0.00623192 
-0.0547252 -0.0163901 0.00648359 
-0.0543582 -0.0163922 0.00682321 
-0.0539098 -0.0164027 0.0070748 
-0.0534615 -0.0164133 0.0073264 
-0.0530131 -0.0164238 0.00757799 
-0.0525647 -0.0164343 0.00782958 
-0.0521164 -0.0164449 0.00808124 
-0.051668 -0.0164554 0.00833283 
-0.0512196 -0.0164659 0.00858442 
-0.0506899 -0.0164849 0.00874805 
-0.0502415 -0.0164955 0.00899964 
-0.0497117 -0.0165145 0.00916326 
-0.0492634 -0.0165251 0.00941485 
-0.048815 -0.0165356 0.00966644 
-0.0482852 -0.0165547 0.00983007 
-0.0478368 -0.0165652 0.0100817 
-0.0473071 -0.0165843 0.0102453 
-0.0468587 -0.0165948 0.0104969 
-0.0462475 -0.0166224 0.0105725 
-0.0457177 -0.0166414 0.010736 
-0.0451065 -0.016669 0.0108116 
-0.0445768 -0.0166881 0.0109752 
-0.0438027 -0.0167326 0.0108747 
-0.0427844 -0.0168026 0.0105102 
-0.0420918 -0.0168387 0.0104978 
-0.0413991 -0.0168748 0.0104853 
-0.0408694 -0.0168938 0.0106489 
-0.0403396 -0.0169129 0.0108125 
-0.0398912 -0.0169234 0.0110641 
-0.0393614 -0.0169425 0.0112277 
-0.0388317 -0.0169615 0.0113913 
-0.0383833 -0.0169721 0.0116429 
-0.0378535 -0.016991 0.0118065 
-0.0373237 -0.0170101 0.0119701 
-0.0366311 -0.0170461 0.0119576 
-0.0360199 -0.0170737 0.0120332 
-0.0353273 -0.0171098 0.0120208 
-0.033739 -0.0172393 0.0110401 
-0.0330464 -0.0172754 0.0110277 
-0.0322723 -0.0173199 0.0109272 
-0.031824 -0.0173305 0.0111788 
-0.03105 -0.0173751 0.0110783 
-0.0303573 -0.0174111 0.0110659 
-0.0295833 -0.0174557 0.0109654 
-0.0288092 -0.0175002 0.0108649 
-0.0281166 -0.0175362 0.0108525 
-0.0255514 -0.0177679 0.00881564 
-0.0250216 -0.0177869 0.00897919 
-0.0245732 -0.0177975 0.00923078 
-0.0240434 -0.0178165 0.00939441 
-0.0234322 -0.0178441 0.00946999 
-0.022821 -0.0178716 0.00954551 
-0.0222912 -0.0178907 0.00970913 
-0.0215172 -0.0179353 0.00960864 
-0.0207432 -0.0179797 0.00950823 
-0.0200505 -0.0180158 0.00949577 
-0.0192765 -0.0180604 0.00939528 
-0.0187467 -0.0180794 0.00955891 
-0.0181355 -0.018107 0.00963442 
-0.01728 -0.0181601 0.00944597 
-0.0153661 -0.0183236 0.00811323 
-0.0143478 -0.0183937 0.0077487 
-0.0133295 -0.0184637 0.00738417 
-0.0127997 -0.0184828 0.00754779 
-0.0124328 -0.0184848 0.00788742 
-0.011903 -0.0185039 0.00805097 
-0.011536 -0.0185059 0.0083906 
-0.0111691 -0.018508 0.00873023 
-0.0108836 -0.0185015 0.0091579 
-0.0105981 -0.018495 0.00958557 
-0.0103126 -0.0184886 0.0100132 
-0.0101084 -0.0184736 0.0105289 
-0.00982292 -0.0184671 0.0109565 
-0.00961878 -0.0184522 0.0114722 
-0.00933328 -0.0184458 0.0118998 
-0.00904777 -0.0184393 0.0123275 
-0.00884363 -0.0184243 0.0128431 
-0.00855813 -0.0184179 0.0132708 
-0.00835399 -0.0184029 0.0137864 
-0.00814992 -0.0183879 0.0143021 
-0.00794578 -0.0183729 0.0148178 
-0.00774171 -0.018358 0.0153335 
-0.00745614 -0.0183515 0.0157611 
-0.00725207 -0.0183365 0.0162768 
-0.00696656 -0.0183301 0.0167044 
-0.00684386 -0.0183066 0.0173081 
-0.00655836 -0.0183001 0.0177358 
-0.00635422 -0.0182851 0.0182514 
-0.00606871 -0.0182787 0.0186791 
-0.00570177 -0.0182807 0.0190187 
-0.00541626 -0.0182742 0.0194464 
-0.00504932 -0.0182763 0.019786 
-0.00468237 -0.0182783 0.0201256 
-0.00431543 -0.0182804 0.0204653 
-0.00386705 -0.0182909 0.0207169 
-0.0035001 -0.0182929 0.0210565 
-0.00297029 -0.018312 0.02122 
-0.00252197 -0.0183225 0.0214717 
-0.00199215 -0.0183416 0.0216353 
-0.00154384 -0.0183521 0.0218869 
-0.00101402 -0.0183712 0.0220505 
-0.000565636 -0.0183817 0.0223021 
-3.58848e-05 -0.0184008 0.0224657 
0.000493935 -0.0184199 0.0226292 
0.000942249 -0.0184304 0.0228809 
0.00163488 -0.0184665 0.0228684 
0.00224613 -0.018494 0.022944 
0.00302013 -0.0185385 0.0228435 
0.00420131 -0.0186256 0.0223029 
0.0048125 -0.0186532 0.0223785 
0.00542369 -0.0186807 0.0224541 
0.00595351 -0.0186998 0.0226177 
0.00648326 -0.0187188 0.0227813 
0.00701301 -0.0187379 0.0229449 
0.0074614 -0.0187484 0.0231965 
0.00807265 -0.018776 0.023272 
0.0086024 -0.018795 0.0234356 
0.00921359 -0.0188225 0.0235112 
0.00982478 -0.0188501 0.0235868 
0.0105988 -0.0188946 0.0234863 
0.0115357 -0.0189562 0.0232098 
0.0124726 -0.0190178 0.0229333 
0.0131652 -0.0190538 0.0229209 
0.0136136 -0.0190643 0.0231725 
0.0142248 -0.0190919 0.0232481 
0.014836 -0.0191194 0.0233236 
0.0155286 -0.0191555 0.0233112 
0.0161496 -0.0191861 0.0233761 
0.0169484 -0.0192382 0.023249 
0.0176606 -0.0192803 0.0232153 
0.0185457 -0.0193424 0.0229948 
0.0194306 -0.0194045 0.0227743 
0.0204883 -0.0194867 0.0223672 
0.0230137 -0.0197391 0.0203733 
0.0235534 -0.0197611 0.0205261 
0.0241794 -0.0197932 0.0205857 
0.024978 -0.0198454 0.0204587 
0.025604 -0.0198775 0.0205183 
0.0264026 -0.0199295 0.0203912 
0.0271149 -0.0199716 0.0203574 
0.0279136 -0.0200238 0.0202303 
0.0288849 -0.0200959 0.0199165 
0.0308923 -0.0202882 0.0184826 
0.031432 -0.0203103 0.0186355 
0.0318852 -0.0203223 0.0188818 
0.0325112 -0.0203544 0.0189414 
0.0335689 -0.0204366 0.0185343 
0.0345402 -0.0205087 0.0182204 
0.0356842 -0.0206009 0.01772 
0.0367419 -0.020683 0.0173129 
0.0375405 -0.0207352 0.0171858 
0.0419655 -0.0212078 0.0131381 
0.0425915 -0.0212399 0.0131978 
0.0433901 -0.0212921 0.0130707 
0.0494556 -0.0219551 0.00724946 
-0.0638235 -0.0173773 -0.0370593 
-0.0637822 -0.0173456 -0.0363677 
-0.0635781 -0.0173309 -0.035852 
-0.0650837 -0.0171392 -0.0334881 
-0.0653681 -0.0170739 -0.0324443 
-0.0654896 -0.0170254 -0.0315766 
-0.0656926 -0.0169685 -0.0306209 
-0.0667097 -0.0168274 -0.028785 
-0.0663428 -0.0168295 -0.0284454 
-0.067767 -0.0166462 -0.0261694 
-0.0677256 -0.0166146 -0.0254778 
-0.0682543 -0.0165239 -0.02417 
-0.0682944 -0.016484 -0.0233903 
-0.068416 -0.0164355 -0.0225226 
-0.0682933 -0.0164122 -0.0219189 
-0.0681706 -0.016389 -0.0213152 
-0.0683736 -0.0163321 -0.0203595 
-0.0684951 -0.0162836 -0.0194918 
-0.0686981 -0.0162267 -0.018536 
-0.0685754 -0.0162035 -0.0179324 
-0.0686155 -0.0161634 -0.0171527 
-0.0684928 -0.0161402 -0.016549 
-0.068533 -0.0161001 -0.0157693 
-0.0684916 -0.0160684 -0.0150776 
-0.0683689 -0.0160453 -0.014474 
-0.0682462 -0.0160221 -0.0138703 
-0.0681235 -0.0159988 -0.0132666 
-0.0679195 -0.015984 -0.0127509 
-0.0677153 -0.0159692 -0.0122353 
-0.0675926 -0.015946 -0.0116316 
-0.0673071 -0.0159396 -0.011204 
-0.067103 -0.0159248 -0.0106883 
-0.0668175 -0.0159185 -0.0102607 
-0.0666134 -0.0159036 -0.00974503 
-0.0662464 -0.0159056 -0.0094054 
-0.0660423 -0.0158908 -0.0088897 
-0.0657568 -0.0158845 -0.00846211 
-0.0657969 -0.0158444 -0.00768236 
-0.0659185 -0.0157959 -0.00681465 
-0.0657957 -0.0157727 -0.00621105 
-0.0657545 -0.0157411 -0.00551935 
-0.0655504 -0.0157262 -0.00500364 
-0.0654277 -0.0157031 -0.00439997 
-0.0652236 -0.0156883 -0.00388434 
-0.0650195 -0.0156734 -0.00336864 
-0.0648153 -0.0156586 -0.002853 
-0.0645298 -0.0156523 -0.00242541 
-0.0643257 -0.0156375 -0.00190971 
-0.0639588 -0.0156395 -0.00157008 
-0.0636732 -0.0156331 -0.00114248 
-0.0633877 -0.0156267 -0.000714816 
-0.0631022 -0.0156203 -0.000287149 
-0.0627352 -0.0156224 5.24796e-05 
-0.0623683 -0.0156244 0.000392108 
-0.0620827 -0.015618 0.000819702 
-0.0617972 -0.0156117 0.00124737 
-0.0614303 -0.0156137 0.001587 
-0.0610633 -0.0156158 0.00192663 
-0.0606964 -0.0156178 0.00226626 
-0.0603294 -0.0156198 0.00260588 
-0.0600439 -0.0156135 0.00303355 
-0.0595955 -0.0156239 0.00328514 
-0.0592286 -0.015626 0.00362477 
-0.0587802 -0.0156364 0.00387636 
-0.0584133 -0.0156384 0.00421599 
-0.0580463 -0.0156405 0.00455562 
-0.057598 -0.0156509 0.00480728 
-0.0572311 -0.015653 0.00514691 
-0.0567827 -0.0156634 0.0053985 
-0.0564157 -0.0156655 0.00573813 
-0.0559674 -0.0156759 0.00598972 
-0.0556004 -0.0156779 0.00632935 
-0.0551521 -0.0156885 0.00658102 
-0.0547037 -0.0156989 0.00683261 
-0.0542553 -0.0157094 0.0070842 
-0.053807 -0.0157198 0.00733586 
-0.0534401 -0.0157219 0.00767549 
-0.0529103 -0.0157407 0.00783912 
-0.0525434 -0.0157428 0.00817875 
-0.0520136 -0.0157617 0.0083423 
-0.0515652 -0.0157722 0.00859389 
-0.0511169 -0.0157826 0.00884555 
-0.0506685 -0.0157931 0.00909714 
-0.0502201 -0.0158035 0.00934873 
-0.0496903 -0.0158224 0.00951236 
-0.049242 -0.0158329 0.00976395 
-0.0487936 -0.0158433 0.0100156 
-0.0482638 -0.0158622 0.0101792 
-0.0477341 -0.0158811 0.0103428 
-0.0472857 -0.0158915 0.0105944 
-0.0467559 -0.0159105 0.010758 
-0.0462262 -0.0159293 0.0109216 
-0.0456964 -0.0159482 0.0110852 
-0.0450852 -0.0159755 0.0111608 
-0.044474 -0.0160028 0.0112364 
-0.0438628 -0.01603 0.011312 
-0.0428446 -0.0160995 0.0109475 
-0.0419077 -0.0161604 0.010671 
-0.0412151 -0.0161962 0.0106586 
-0.0406039 -0.0162234 0.0107341 
-0.0401556 -0.016234 0.0109858 
-0.0396257 -0.0162528 0.0111494 
-0.039096 -0.0162717 0.011313 
-0.0386476 -0.0162821 0.0115646 
-0.0381179 -0.0163011 0.0117282 
-0.0376695 -0.0163115 0.0119798 
-0.0371397 -0.0163304 0.0121434 
-0.0365285 -0.0163577 0.012219 
-0.0359173 -0.016385 0.0122946 
-0.0351433 -0.0164291 0.0121941 
-0.0344507 -0.0164649 0.0121817 
-0.0327811 -0.0166016 0.0111131 
-0.0320885 -0.0166374 0.0111007 
-0.0314773 -0.0166646 0.0111763 
-0.0307033 -0.0167088 0.0110758 
-0.0300107 -0.0167445 0.0110634 
-0.0293181 -0.0167802 0.011051 
-0.0284626 -0.0168328 0.0108625 
-0.0274444 -0.0169022 0.010498 
-0.0251235 -0.0171063 0.00872534 
-0.0245937 -0.0171253 0.00888897 
-0.0241453 -0.0171357 0.00914056 
-0.0235341 -0.017163 0.00921615 
-0.022923 -0.0171903 0.00929173 
-0.0223931 -0.0172092 0.00945529 
-0.0216191 -0.0172534 0.00935487 
-0.0210079 -0.0172806 0.00943046 
-0.0203968 -0.0173079 0.00950605 
-0.0197856 -0.0173352 0.00958164 
-0.0191744 -0.0173625 0.00965722 
-0.0186446 -0.0173814 0.00982085 
-0.0180334 -0.0174087 0.00989644 
-0.0166894 -0.0175118 0.00917983 
-0.0147757 -0.0176738 0.00784725 
-0.0137574 -0.0177432 0.00748272 
-0.0131462 -0.0177706 0.00755831 
-0.0126978 -0.017781 0.00780997 
-0.0122495 -0.0177915 0.00806157 
-0.0118011 -0.0178019 0.00831316 
-0.0114341 -0.0178039 0.00865279 
-0.0110672 -0.017806 0.00899241 
-0.0108631 -0.0177912 0.00950812 
-0.0105776 -0.0177848 0.00993571 
-0.010292 -0.0177785 0.0103634 
-0.0100879 -0.0177636 0.010879 
-0.00988384 -0.0177488 0.0113947 
-0.00959827 -0.0177425 0.0118223 
-0.00931276 -0.0177361 0.01225 
-0.00910862 -0.0177212 0.0127656 
-0.00882312 -0.0177148 0.0131933 
-0.00861898 -0.0177001 0.0137089 
-0.00841491 -0.0176853 0.0142246 
-0.00821077 -0.0176704 0.0147402 
-0.00800664 -0.0176557 0.0152559 
-0.00772113 -0.0176493 0.0156835 
-0.00751699 -0.0176345 0.0161992 
-0.00731292 -0.0176197 0.0167149 
-0.00702735 -0.0176133 0.0171425 
-0.00682328 -0.0175985 0.0176582 
-0.00653771 -0.0175921 0.0180858 
-0.00633364 -0.0175774 0.0186015 
-0.00596669 -0.0175794 0.0189411 
-0.00568112 -0.017573 0.0193687 
-0.00539561 -0.0175666 0.0197964 
-0.00502867 -0.0175686 0.020136 
-0.00466172 -0.0175706 0.0204756 
-0.00421334 -0.0175812 0.0207272 
-0.0038464 -0.0175832 0.0210668 
-0.00339808 -0.0175937 0.0213185 
-0.00286826 -0.0176125 0.0214821 
-0.00233851 -0.0176314 0.0216457 
-0.00189013 -0.0176418 0.0218973 
-0.00144182 -0.0176524 0.0221489 
-0.000993434 -0.0176628 0.0224005 
-0.000463683 -0.0176817 0.0225642 
-1.53006e-05 -0.0176921 0.0228157 
0.000514451 -0.017711 0.0229794 
0.00104427 -0.0177299 0.0231429 
0.00173683 -0.0177656 0.0231305 
0.00234802 -0.017793 0.0232061 
0.00320352 -0.0178454 0.0230176 
0.00446601 -0.0179401 0.0223891 
0.00499576 -0.017959 0.0225527 
0.00552558 -0.0179779 0.0227163 
0.00613677 -0.0180052 0.0227919 
0.00658508 -0.0180157 0.0230435 
0.00719627 -0.0180429 0.0231191 
0.00764465 -0.0180535 0.0233707 
0.00833728 -0.0180891 0.0233583 
0.00886703 -0.018108 0.0235219 
0.00955966 -0.0181438 0.0235095 
0.0101708 -0.018171 0.023585 
0.0110263 -0.0182236 0.0233966 
0.0119631 -0.0182846 0.0231202 
0.0129 -0.0183456 0.0228437 
0.0135111 -0.0183729 0.0229193 
0.0141223 -0.0184002 0.0229949 
0.0146522 -0.018419 0.0231584 
0.0153447 -0.0184548 0.023146 
0.0160521 -0.0184952 0.0231176 
0.0167645 -0.0185371 0.0230838 
0.0174769 -0.018579 0.02305 
0.0183619 -0.0186409 0.0228295 
0.0191605 -0.0186928 0.0227024 
0.0202183 -0.0187746 0.0222951 
0.021017 -0.0188265 0.022168 
0.0230246 -0.0190181 0.0207339 
0.0239096 -0.0190799 0.0205134 
0.0247083 -0.0191318 0.0203863 
0.025507 -0.0191838 0.0202591 
0.0262193 -0.0192256 0.0202253 
0.0269316 -0.0192676 0.0201916 
0.027644 -0.0193096 0.0201577 
0.0286154 -0.0193814 0.0198439 
0.0295868 -0.0194532 0.0195301 
0.0311626 -0.0195949 0.0185627 
0.0317886 -0.0196268 0.0186223 
0.0323282 -0.0196488 0.0187753 
0.0332133 -0.0197107 0.0185548 
0.0341847 -0.0197826 0.0182409 
0.0351561 -0.0198544 0.017927 
0.0362138 -0.0199362 0.0175199 
0.0370988 -0.0199981 0.0172994 
0.0399699 -0.0202894 0.0149317 
0.0422366 -0.0205108 0.0132175 
0.0429489 -0.0205527 0.0131838 
0.0437476 -0.0206047 0.0130566 
0.0499 -0.0212749 0.0071415 
-0.0576569 -0.0173335 -0.0440896 
-0.0641286 -0.0166352 -0.0363572 
-0.0640873 -0.0166039 -0.0356656 
-0.0646972 -0.0165059 -0.0342699 
-0.0652258 -0.0164161 -0.0329621 
-0.0657544 -0.0163265 -0.0316544 
-0.0657131 -0.0162952 -0.0309627 
-0.0668116 -0.0161471 -0.0290389 
-0.0668517 -0.0161074 -0.0282593 
-0.0679501 -0.0159595 -0.0263355 
-0.0679089 -0.0159281 -0.0256438 
-0.0685188 -0.0158301 -0.0242481 
-0.0685589 -0.0157904 -0.0234684 
-0.0685991 -0.0157508 -0.0226887 
-0.0685578 -0.0157195 -0.021997 
-0.0685165 -0.0156882 -0.0213054 
-0.068638 -0.0156402 -0.0204377 
-0.0687596 -0.0155922 -0.01957 
-0.0689625 -0.0155359 -0.0186143 
-0.0688398 -0.0155129 -0.0180106 
-0.0688799 -0.0154733 -0.0172309 
-0.0687572 -0.0154503 -0.0166273 
-0.0687159 -0.0154189 -0.0159356 
-0.0686746 -0.0153876 -0.0152439 
-0.0686333 -0.0153563 -0.0145523 
-0.0684292 -0.0153417 -0.0140366 
-0.0683064 -0.0153187 -0.013433 
-0.0681837 -0.0152957 -0.0128293 
-0.0679796 -0.0152811 -0.0123137 
-0.0678569 -0.0152581 -0.01171 
-0.0676528 -0.0152435 -0.0111944 
-0.0673672 -0.0152372 -0.0107667 
-0.0671631 -0.0152225 -0.0102511 
-0.0668776 -0.0152163 -0.00982345 
-0.0665107 -0.0152183 -0.00948382 
-0.0663065 -0.0152036 -0.00896819 
-0.066021 -0.0151974 -0.00854052 
-0.0660611 -0.0151577 -0.00776085 
-0.0661827 -0.0151098 -0.00689314 
-0.0660599 -0.0150868 -0.00628955 
-0.0660186 -0.0150554 -0.00559784 
-0.0658959 -0.0150324 -0.00499417 
-0.0656918 -0.0150178 -0.00447854 
-0.0654877 -0.0150032 -0.00396291 
-0.0652835 -0.0149886 -0.00344728 
-0.0650794 -0.0149739 -0.00293165 
-0.0647939 -0.0149677 -0.00250398 
-0.0645898 -0.014953 -0.00198835 
-0.0643042 -0.0149467 -0.00156069 
-0.0639373 -0.0149488 -0.00122106 
-0.0637332 -0.0149341 -0.000705428 
-0.0633662 -0.0149361 -0.000365799 
-0.0630807 -0.0149299 6.18675e-05 
-0.0627951 -0.0149235 0.000489461 
-0.0624282 -0.0149255 0.00082909 
-0.0621427 -0.0149193 0.00125676 
-0.0617757 -0.0149213 0.00159638 
-0.0614088 -0.0149233 0.00193601 
-0.0611233 -0.0149171 0.00236368 
-0.0607564 -0.0149191 0.00270331 
-0.0603894 -0.0149211 0.00304294 
-0.0600225 -0.0149232 0.00338257 
-0.0596555 -0.0149252 0.0037222 
-0.0592071 -0.0149356 0.00397379 
-0.0588402 -0.0149376 0.00431342 
-0.0583918 -0.014948 0.00456501 
-0.0580249 -0.01495 0.00490464 
-0.0575766 -0.0149604 0.0051563 
-0.0572096 -0.0149625 0.00549593 
-0.0567612 -0.0149728 0.00574752 
-0.0563129 -0.0149832 0.00599918 
-0.055946 -0.0149852 0.00633881 
-0.0554976 -0.0149957 0.0065904 
-0.0551306 -0.0149977 0.00693003 
-0.0546823 -0.015008 0.00718162 
-0.0542339 -0.0150184 0.00743329 
-0.0537856 -0.0150288 0.00768488 
-0.0533372 -0.0150392 0.00793647 
-0.0528889 -0.0150495 0.00818814 
-0.0524405 -0.01506 0.00843973 
-0.0519922 -0.0150703 0.00869139 
-0.0514624 -0.0150891 0.00885495 
-0.0510954 -0.0150911 0.00919457 
-0.0506471 -0.0151015 0.00944624 
-0.0501173 -0.0151201 0.00960987 
-0.049669 -0.0151306 0.00986146 
-0.0492206 -0.0151409 0.010113 
-0.0487723 -0.0151513 0.0103647 
-0.0482425 -0.01517 0.0105283 
-0.0477941 -0.0151804 0.0107799 
-0.0472644 -0.0151991 0.0109436 
-0.0467346 -0.0152179 0.0111072 
-0.0462048 -0.0152365 0.0112707 
-0.0456751 -0.0152553 0.0114344 
-0.0450639 -0.0152823 0.01151 
-0.0443713 -0.0153177 0.0114976 
-0.0437601 -0.0153448 0.0115732 
-0.0429047 -0.0153968 0.0113847 
-0.0416423 -0.0154906 0.0107563 
-0.041031 -0.0155176 0.0108318 
-0.0404199 -0.0155447 0.0109075 
-0.0398901 -0.0155634 0.0110711 
-0.0394417 -0.0155738 0.0113227 
-0.038912 -0.0155925 0.0114863 
-0.0383822 -0.0156112 0.0116499 
-0.0379339 -0.0156216 0.0119015 
-0.0374855 -0.015632 0.0121531 
-0.0369557 -0.0156507 0.0123168 
-0.0363445 -0.0156778 0.0123924 
-0.0357334 -0.0157047 0.0124679 
-0.0350408 -0.0157402 0.0124556 
-0.0342668 -0.0157839 0.0123552 
-0.032353 -0.0159444 0.0110226 
-0.0317418 -0.0159714 0.0110982 
-0.0311306 -0.0159985 0.0111738 
-0.0303566 -0.0160423 0.0110733 
-0.0296641 -0.0160776 0.011061 
-0.0289714 -0.016113 0.0110485 
-0.027709 -0.0162068 0.0104201 
-0.026935 -0.0162505 0.0103196 
-0.0248584 -0.0164277 0.00881112 
-0.0242472 -0.0164547 0.00888671 
-0.0235546 -0.0164901 0.00887426 
-0.0230249 -0.0165088 0.00903789 
-0.0224951 -0.0165275 0.00920152 
-0.0219654 -0.0165462 0.00936514 
-0.0213542 -0.0165733 0.00944073 
-0.0209058 -0.0165836 0.00969232 
-0.0202947 -0.0166107 0.00976799 
-0.0197649 -0.0166295 0.00993154 
-0.0191537 -0.0166565 0.0100071 
-0.0185425 -0.0166836 0.0100828 
-0.0176871 -0.0167356 0.00989434 
-0.0167503 -0.0167961 0.00961793 
-0.0142667 -0.0170149 0.00766931 
-0.0134926 -0.0170585 0.00756883 
-0.0129628 -0.0170773 0.00773245 
-0.0125145 -0.0170876 0.00798412 
-0.0121476 -0.0170897 0.00832375 
-0.0116992 -0.0171001 0.00857534 
-0.0113323 -0.0171022 0.00891497 
-0.0110467 -0.0170958 0.00934263 
-0.0108426 -0.0170812 0.00985826 
-0.010557 -0.0170749 0.0102859 
-0.010353 -0.0170603 0.0108016 
-0.0100674 -0.0170539 0.0112292 
-0.00986332 -0.0170393 0.0117449 
-0.00957775 -0.017033 0.0121725 
-0.00937361 -0.0170184 0.0126881 
-0.00908811 -0.0170121 0.0131157 
-0.00888397 -0.0169975 0.0136314 
-0.00867983 -0.0169828 0.014147 
-0.00839433 -0.0169765 0.0145747 
-0.00819019 -0.0169618 0.0150903 
-0.00798612 -0.0169473 0.015606 
-0.00770055 -0.0169409 0.0160336 
-0.00749641 -0.0169263 0.0165492 
-0.0072109 -0.0169201 0.0169769 
-0.00700677 -0.0169054 0.0174925 
-0.00680263 -0.0168907 0.0180082 
-0.00651712 -0.0168844 0.0184358 
-0.00623162 -0.0168782 0.0188635 
-0.00594604 -0.0168718 0.0192911 
-0.0055791 -0.0168739 0.0196307 
-0.00529359 -0.0168676 0.0200584 
-0.00492665 -0.0168696 0.020398 
-0.0045597 -0.0168717 0.0207376 
-0.00411132 -0.016882 0.0209892 
-0.00366301 -0.0168925 0.0212409 
-0.00321462 -0.0169028 0.0214925 
-0.00276624 -0.0169132 0.0217441 
-0.00223649 -0.0169319 0.0219077 
-0.00178818 -0.0169423 0.0221594 
-0.00133979 -0.0169527 0.022411 
-0.000810043 -0.0169714 0.0225746 
-0.000443099 -0.0169734 0.0229142 
8.66532e-05 -0.0169921 0.0230778 
0.000616473 -0.0170108 0.0232414 
0.00122766 -0.0170379 0.023317 
0.00192022 -0.0170733 0.0233046 
0.00253141 -0.0171003 0.0233802 
0.00428232 -0.0172441 0.0222237 
0.0047307 -0.0172545 0.0224753 
0.00517909 -0.0172648 0.0227269 
0.00579021 -0.0172919 0.0228026 
0.00623859 -0.0173023 0.0230541 
0.00684978 -0.0173294 0.0231297 
0.00737953 -0.0173481 0.0232934 
0.00790928 -0.0173668 0.023457 
0.00860191 -0.0174022 0.0234445 
0.0092131 -0.0174292 0.0235201 
0.00990566 -0.0174646 0.0235078 
0.0105168 -0.0174917 0.0235833 
0.0114537 -0.017552 0.0233069 
0.0123905 -0.0176125 0.0230304 
0.0134087 -0.0176812 0.0226661 
0.0139385 -0.0177 0.0228296 
0.0145497 -0.017727 0.0229052 
0.0152423 -0.0177624 0.0228928 
0.0159547 -0.0178042 0.022859 
0.0165807 -0.017836 0.0229186 
0.0173794 -0.0178877 0.0227914 
0.0181782 -0.0179394 0.0226641 
0.0188905 -0.0179811 0.0226304 
0.019862 -0.0180527 0.0223164 
0.020747 -0.0181143 0.0220959 
0.0214594 -0.0181561 0.0220621 
0.0230353 -0.0182972 0.0210946 
0.0239205 -0.0183588 0.0208741 
0.0250646 -0.0184502 0.0203734 
0.025777 -0.018492 0.0203396 
0.0267484 -0.0185636 0.0200257 
0.0275472 -0.0186152 0.0198985 
0.0283459 -0.0186669 0.0197714 
0.0291446 -0.0187187 0.0196442 
0.0309796 -0.0188895 0.0183966 
0.0316056 -0.0189213 0.0184562 
0.0322317 -0.0189532 0.0185157 
0.032944 -0.0189949 0.0184819 
0.0338291 -0.0190566 0.0182614 
0.0349733 -0.019148 0.0177607 
0.035772 -0.0191996 0.0176336 
0.0368298 -0.0192811 0.0172262 
0.0378876 -0.0193626 0.016819 
0.0417953 -0.0197719 0.0133307 
0.0424213 -0.0198037 0.0133903 
0.0433064 -0.0198653 0.0131697 
0.0495456 -0.0205427 0.00716071 
0.050258 -0.0205844 0.00712687 
-0.0578408 -0.0166329 -0.0442548 
-0.0643121 -0.0159416 -0.0365228 
-0.0641079 -0.0159271 -0.0360072 
-0.0645551 -0.0158466 -0.0347875 
-0.0651651 -0.0157496 -0.0333918 
-0.0658564 -0.0156442 -0.0319081 
-0.0660593 -0.0155885 -0.0309525 
-0.066018 -0.0155575 -0.0302608 
-0.067035 -0.0154192 -0.0284252 
-0.0671565 -0.0153717 -0.0275574 
-0.068092 -0.0152417 -0.0258098 
-0.0683764 -0.0151776 -0.0247661 
-0.0687421 -0.0151054 -0.0236344 
-0.0687008 -0.0150744 -0.0229428 
-0.0688222 -0.0150269 -0.0220752 
-0.068781 -0.014996 -0.0213835 
-0.068821 -0.0149567 -0.0206039 
-0.0689426 -0.0149093 -0.0197362 
-0.0691455 -0.0148534 -0.0187805 
-0.0690227 -0.0148308 -0.0181769 
-0.0689815 -0.0147998 -0.0174852 
-0.0689401 -0.0147688 -0.0167936 
-0.0688988 -0.0147378 -0.0161019 
-0.0687761 -0.014715 -0.0154983 
-0.0687348 -0.014684 -0.0148066 
-0.0686121 -0.0146614 -0.014203 
-0.0684893 -0.0146387 -0.0135994 
-0.0683666 -0.0146159 -0.0129957 
-0.0682438 -0.0145932 -0.0123921 
-0.0680398 -0.0145787 -0.0118764 
-0.0678356 -0.0145643 -0.0113608 
-0.0677129 -0.0145415 -0.0107572 
-0.0674274 -0.0145353 -0.0103295 
-0.0671419 -0.014529 -0.00990186 
-0.0667749 -0.0145311 -0.00956223 
-0.0665708 -0.0145166 -0.0090466 
-0.0662852 -0.0145104 -0.00861901 
-0.0663253 -0.0144712 -0.00783934 
-0.0663654 -0.014432 -0.00705967 
-0.0662427 -0.0144092 -0.00645608 
-0.06612 -0.0143865 -0.00585241 
-0.0660786 -0.0143555 -0.00516078 
-0.0659559 -0.0143328 -0.00455711 
-0.0657518 -0.0143184 -0.00404149 
-0.0655477 -0.0143039 -0.00352586 
-0.0653435 -0.0142894 -0.00301023 
-0.065058 -0.0142831 -0.00258256 
-0.0648539 -0.0142687 -0.00206693 
-0.0645684 -0.0142625 -0.00163926 
-0.0642828 -0.0142562 -0.00121167 
-0.0639973 -0.0142501 -0.000784005 
-0.0637117 -0.0142438 -0.000356412 
-0.0634262 -0.0142376 7.12538e-05 
-0.0630593 -0.0142397 0.000410883 
-0.0627737 -0.0142334 0.000838475 
-0.0624882 -0.0142272 0.00126614 
-0.0621212 -0.0142293 0.00160577 
-0.0617543 -0.0142313 0.0019454 
-0.0614687 -0.014225 0.00237299 
-0.0611832 -0.0142189 0.00280066 
-0.0607348 -0.0142291 0.00305225 
-0.0603679 -0.0142312 0.00339188 
-0.0600009 -0.0142332 0.00373151 
-0.0597154 -0.014227 0.00415917 
-0.0592671 -0.0142373 0.00441076 
-0.0588187 -0.0142476 0.00466243 
-0.0584518 -0.0142497 0.00500206 
-0.0580034 -0.0142599 0.00525365 
-0.0576365 -0.014262 0.00559328 
-0.0571882 -0.0142723 0.00584494 
-0.0567398 -0.0142825 0.00609654 
-0.0562915 -0.0142929 0.0063482 
-0.0559245 -0.0142949 0.00668783 
-0.0554761 -0.0143052 0.00693942 
-0.0550278 -0.0143155 0.00719109 
-0.0545794 -0.0143258 0.00744268 
-0.0542125 -0.0143278 0.00778231 
-0.0536827 -0.0143464 0.00794593 
-0.0532344 -0.0143567 0.00819753 
-0.052786 -0.014367 0.00844919 
-0.0523377 -0.0143773 0.00870078 
-0.0518893 -0.0143875 0.00895245 
-0.051441 -0.0143979 0.00920404 
-0.0509926 -0.0144081 0.00945563 
-0.0504628 -0.0144267 0.00961926 
-0.0500145 -0.0144369 0.00987092 
-0.0495661 -0.0144473 0.0101225 
-0.0491992 -0.0144493 0.0104621 
-0.0486694 -0.0144679 0.0106258 
-0.0482211 -0.0144781 0.0108774 
-0.0476913 -0.0144967 0.011041 
-0.0471616 -0.0145152 0.0112046 
-0.0467132 -0.0145256 0.0114563 
-0.046102 -0.0145523 0.0115319 
-0.0455723 -0.0145709 0.0116955 
-0.0449611 -0.0145978 0.0117711 
-0.0442685 -0.0146328 0.0117587 
-0.0434946 -0.0146761 0.0116583 
-0.0426392 -0.0147277 0.0114699 
-0.0414582 -0.0148123 0.0109296 
-0.040847 -0.014839 0.0110052 
-0.0402358 -0.0148659 0.0110807 
-0.0396246 -0.0148927 0.0111563 
-0.0391763 -0.014903 0.011408 
-0.0386466 -0.0149216 0.0115716 
-0.0381982 -0.0149318 0.0118232 
-0.0377499 -0.0149422 0.0120749 
-0.0372201 -0.0149607 0.0122385 
-0.0366904 -0.0149793 0.0124021 
-0.0360792 -0.015006 0.0124777 
-0.035468 -0.0150329 0.0125533 
-0.0348569 -0.0150596 0.012629 
-0.033106 -0.015202 0.0114725 
-0.0320878 -0.0152701 0.0111081 
-0.0314766 -0.015297 0.0111837 
-0.0309468 -0.0153155 0.0113473 
-0.0301728 -0.0153588 0.0112469 
-0.0293988 -0.0154022 0.0111465 
-0.0283807 -0.0154702 0.0107821 
-0.0275253 -0.0155218 0.0105938 
-0.0271584 -0.0155239 0.0109334 
-0.0247562 -0.0157323 0.0090729 
-0.023738 -0.0158004 0.00870845 
-0.0232082 -0.0158189 0.00887208 
-0.0228413 -0.015821 0.00921171 
-0.0223115 -0.0158395 0.00937534 
-0.0217818 -0.0158581 0.00953897 
-0.0213334 -0.0158683 0.00979056 
-0.0208036 -0.0158869 0.00995419 
-0.0202739 -0.0159054 0.0101178 
-0.0197441 -0.015924 0.0102814 
-0.0189701 -0.0159673 0.010181 
-0.018359 -0.0159941 0.0102567 
-0.0175036 -0.0160457 0.0100682 
-0.0167297 -0.016089 0.00996791 
-0.0140018 -0.0163304 0.00775534 
-0.0133093 -0.0163655 0.00774297 
-0.0127795 -0.016384 0.0079066 
-0.0124126 -0.0163861 0.00824623 
-0.0120456 -0.0163881 0.00858585 
-0.0115973 -0.0163985 0.00883752 
-0.0113117 -0.0163922 0.00926511 
-0.0110262 -0.016386 0.00969278 
-0.0107407 -0.0163798 0.0101204 
-0.0105365 -0.0163653 0.010636 
-0.010251 -0.0163591 0.0110637 
-0.0100469 -0.0163446 0.0115793 
-0.00984274 -0.0163302 0.0120949 
-0.00955723 -0.0163239 0.0125226 
-0.00927166 -0.0163177 0.0129502 
-0.00906752 -0.0163033 0.0134658 
-0.00886345 -0.0162888 0.0139815 
-0.00857788 -0.0162826 0.0144091 
-0.00837374 -0.0162681 0.0149247 
-0.00816961 -0.0162537 0.0154404 
-0.0078841 -0.0162474 0.015868 
-0.00767996 -0.0162329 0.0163837 
-0.00747583 -0.0162184 0.0168993 
-0.00719032 -0.0162123 0.017327 
-0.00690474 -0.016206 0.0177546 
-0.00670061 -0.0161915 0.0182702 
-0.0064151 -0.0161854 0.0186978 
-0.00612953 -0.0161791 0.0191254 
-0.00584402 -0.0161729 0.0195531 
-0.00547708 -0.016175 0.0198927 
-0.00511013 -0.016177 0.0202324 
-0.00482456 -0.0161708 0.02066 
-0.00437624 -0.0161811 0.0209116 
-0.00392786 -0.0161913 0.0211632 
-0.00356092 -0.0161934 0.0215028 
-0.0031126 -0.0162037 0.0217545 
-0.00258285 -0.0162223 0.0219181 
-0.0020531 -0.0162408 0.0220818 
-0.00160472 -0.0162511 0.0223334 
-0.00115634 -0.0162614 0.0225849 
-0.000708021 -0.0162717 0.0228366 
-0.000259639 -0.016282 0.0230882 
0.000270113 -0.0163006 0.0232518 
0.000881234 -0.0163273 0.0233275 
0.00149242 -0.0163541 0.0234031 
0.00210361 -0.016381 0.0234787 
0.00263337 -0.0163995 0.0236423 
0.00454702 -0.0165584 0.0223099 
0.00491396 -0.0165604 0.0226495 
0.00544371 -0.016579 0.0228131 
0.00597346 -0.0165975 0.0229768 
0.00650328 -0.0166161 0.0231403 
0.00711441 -0.0166429 0.023216 
0.00764416 -0.0166615 0.0233796 
0.00825535 -0.0166883 0.0234552 
0.00894791 -0.0167233 0.0234428 
0.0095591 -0.0167501 0.0235184 
0.0102517 -0.0167851 0.0235061 
0.0109442 -0.0168202 0.0234937 
0.011881 -0.0168801 0.0232173 
0.0133063 -0.0169894 0.0224128 
0.0138361 -0.017008 0.0225764 
0.0143658 -0.0170265 0.02274 
0.0149769 -0.0170533 0.0228157 
0.0157708 -0.0171032 0.0226938 
0.0163968 -0.0171349 0.0227533 
0.0171956 -0.0171864 0.0226261 
0.017908 -0.017228 0.0225922 
0.0186204 -0.0172696 0.0225584 
0.0194192 -0.0173211 0.0224312 
0.020218 -0.0173726 0.0223039 
0.0211031 -0.0174339 0.0220834 
0.0222473 -0.017525 0.0215827 
0.0231325 -0.0175863 0.021362 
0.0240176 -0.0176478 0.0211414 
0.0252482 -0.0177486 0.0205473 
0.0261333 -0.0178101 0.0203268 
0.0271912 -0.0178912 0.0199194 
0.0280763 -0.0179526 0.0196988 
0.0288751 -0.0180041 0.0195716 
0.0305376 -0.0181544 0.0185106 
0.0314227 -0.0182158 0.01829 
0.0321351 -0.0182575 0.0182562 
0.0327612 -0.0182891 0.0183157 
0.0336463 -0.0183505 0.0180951 
0.0347042 -0.0184317 0.0176877 
0.035503 -0.0184831 0.0175605 
0.0366472 -0.0185742 0.0170598 
0.0375323 -0.0186356 0.0168392 
0.0406629 -0.018954 0.014191 
0.0418936 -0.019055 0.0135969 
0.0426059 -0.0190966 0.013563 
0.0434911 -0.019158 0.0133424 
0.04999 -0.0198621 0.00705268 
-0.0625019 -0.015483 -0.03958 
-0.0646584 -0.0152316 -0.0365124 
-0.0643729 -0.0152254 -0.0360848 
-0.0655526 -0.0150722 -0.0340732 
-0.0655113 -0.0150415 -0.0333815 
-0.0657141 -0.0149863 -0.0324259 
-0.0662427 -0.0148985 -0.0311183 
-0.0663642 -0.0148515 -0.0302506 
-0.0666484 -0.0147882 -0.029207 
-0.0675025 -0.0146676 -0.0275474 
-0.0675426 -0.0146288 -0.0267677 
-0.0680711 -0.0145409 -0.0254602 
-0.0685996 -0.014453 -0.0241525 
-0.0688025 -0.0143978 -0.0231969 
-0.0687612 -0.0143672 -0.0225053 
-0.0688826 -0.0143202 -0.0216376 
-0.0690041 -0.0142732 -0.02077 
-0.0689628 -0.0142426 -0.0200784 
-0.0691656 -0.0141874 -0.0191228 
-0.0691243 -0.0141568 -0.0184312 
-0.069083 -0.0141261 -0.0177395 
-0.0690416 -0.0140955 -0.0170479 
-0.0690003 -0.0140648 -0.0163563 
-0.068959 -0.0140341 -0.0156646 
-0.0688363 -0.0140116 -0.015061 
-0.0687135 -0.0139891 -0.0144574 
-0.0685908 -0.0139667 -0.0138538 
-0.0684681 -0.0139442 -0.0132501 
-0.0683453 -0.0139217 -0.0126465 
-0.0681412 -0.0139074 -0.0121309 
-0.0680185 -0.013885 -0.0115272 
-0.0678957 -0.0138625 -0.0109236 
-0.0676102 -0.0138563 -0.010496 
-0.0673246 -0.0138502 -0.0100684 
-0.0670391 -0.0138441 -0.00964072 
-0.066835 -0.0138298 -0.00912509 
-0.0666308 -0.0138154 -0.00860946 
-0.0665081 -0.0137929 -0.00800587 
-0.0664667 -0.0137624 -0.00731424 
-0.0664254 -0.0137317 -0.00662261 
-0.0663027 -0.0137092 -0.00601895 
-0.0662614 -0.0136785 -0.00532732 
-0.06622 -0.0136479 -0.00463569 
-0.0660159 -0.0136336 -0.00412006 
-0.0658118 -0.0136193 -0.00360443 
-0.0656076 -0.013605 -0.0030888 
-0.0653221 -0.0135988 -0.00266121 
-0.0651179 -0.0135845 -0.00214558 
-0.0648324 -0.0135784 -0.00171791 
-0.0645468 -0.0135723 -0.00129032 
-0.0642613 -0.0135661 -0.000862656 
-0.0639758 -0.01356 -0.000435064 
-0.0636903 -0.0135539 -7.39839e-06 
-0.0633233 -0.0135559 0.00033223 
-0.0630377 -0.0135498 0.000759823 
-0.0627522 -0.0135436 0.00118749 
-0.0623853 -0.0135457 0.00152712 
-0.0620997 -0.0135396 0.00195471 
-0.0617328 -0.0135416 0.00229434 
-0.0615286 -0.0135272 0.00280997 
-0.0610803 -0.0135375 0.00306163 
-0.0607134 -0.0135395 0.00340126 
-0.0603464 -0.0135416 0.00374089 
-0.0599795 -0.0135436 0.00408052 
-0.0596939 -0.0135374 0.00450811 
-0.0592456 -0.0135477 0.00475978 
-0.0588787 -0.0135497 0.00509941 
-0.0583489 -0.0135681 0.00526303 
-0.0579005 -0.0135783 0.00551463 
-0.0575336 -0.0135804 0.00585426 
-0.0570853 -0.0135906 0.00610592 
-0.0566369 -0.0136008 0.00635751 
-0.0562699 -0.0136028 0.00669714 
-0.0558216 -0.0136131 0.00694881 
-0.0553732 -0.0136233 0.0072004 
-0.0549249 -0.0136334 0.00745206 
-0.0544765 -0.0136437 0.00770366 
-0.0540282 -0.0136539 0.00795532 
-0.0535798 -0.0136641 0.00820691 
-0.0531315 -0.0136743 0.00845858 
-0.0526832 -0.0136845 0.00871017 
-0.0522348 -0.0136947 0.00896184 
-0.0517865 -0.013705 0.00921343 
-0.0512567 -0.0137233 0.00937706 
-0.0508084 -0.0137336 0.00962872 
-0.05036 -0.0137438 0.00988032 
-0.0499117 -0.013754 0.010132 
-0.0495447 -0.013756 0.0104716 
-0.0490964 -0.0137662 0.0107232 
-0.0485666 -0.0137846 0.0108868 
-0.0481183 -0.0137948 0.0111385 
-0.0475885 -0.0138132 0.0113021 
-0.0471402 -0.0138234 0.0115537 
-0.0466104 -0.0138418 0.0117173 
-0.0459993 -0.0138684 0.011793 
-0.0453881 -0.0138949 0.0118686 
-0.044777 -0.0139215 0.0119443 
-0.0440844 -0.0139562 0.0119319 
-0.0432291 -0.0140073 0.0117435 
-0.0422922 -0.0140665 0.0114671 
-0.0412741 -0.014134 0.0111028 
-0.040663 -0.0141606 0.0111784 
-0.0399704 -0.0141952 0.011166 
-0.0394406 -0.0142137 0.0113297 
-0.0389109 -0.014232 0.0114933 
-0.0384626 -0.0142423 0.011745 
-0.0379328 -0.0142606 0.0119085 
-0.0374844 -0.0142709 0.0121602 
-0.0369547 -0.0142892 0.0123238 
-0.0364249 -0.0143076 0.0124874 
-0.0358952 -0.0143261 0.0126511 
-0.0351213 -0.0143689 0.0125507 
-0.0337775 -0.014469 0.0118344 
-0.0330035 -0.0145119 0.011734 
-0.0321481 -0.014563 0.0115456 
-0.0314555 -0.0145978 0.0115332 
-0.030763 -0.0146324 0.0115208 
-0.0299076 -0.0146835 0.0113325 
-0.0290523 -0.0147346 0.0111442 
-0.0281155 -0.0147939 0.0108678 
-0.0275858 -0.0148122 0.0110314 
-0.0271374 -0.0148225 0.0112831 
-0.0247354 -0.0150289 0.00942265 
-0.0233102 -0.0151371 0.00861831 
-0.0230246 -0.0151311 0.0090459 
-0.0226577 -0.0151331 0.00938553 
-0.0221279 -0.0151515 0.00954916 
-0.0216796 -0.0151617 0.00980083 
-0.0211499 -0.0151801 0.00996445 
-0.0206201 -0.0151984 0.0101281 
-0.0200904 -0.0152169 0.0102917 
-0.0194792 -0.0152433 0.0103673 
-0.0187052 -0.0152863 0.010267 
-0.0180941 -0.0153129 0.0103426 
-0.0173201 -0.0153557 0.0102422 
-0.0165461 -0.0153986 0.0101418 
-0.0138999 -0.0156295 0.00801752 
-0.0130446 -0.0156806 0.00782915 
-0.0125962 -0.0156909 0.00808074 
-0.0122292 -0.0156929 0.00842037 
-0.0118623 -0.0156949 0.00876 
-0.0114954 -0.015697 0.00909963 
-0.0112098 -0.0156908 0.00952729 
-0.0109243 -0.0156846 0.00995488 
-0.0107201 -0.0156704 0.0104705 
-0.0104346 -0.0156642 0.0108982 
-0.0102305 -0.0156499 0.0114138 
-0.0100264 -0.0156357 0.0119294 
-0.00974079 -0.0156295 0.012357 
-0.00953665 -0.0156152 0.0128727 
-0.00925114 -0.015609 0.0133003 
-0.00904701 -0.0155948 0.013816 
-0.00876143 -0.0155886 0.0142435 
-0.00855729 -0.0155743 0.0147592 
-0.00835316 -0.01556 0.0152748 
-0.00806758 -0.0155539 0.0157024 
-0.00786345 -0.0155395 0.016218 
-0.00757794 -0.0155334 0.0166457 
-0.00729237 -0.0155273 0.0170733 
-0.00708823 -0.015513 0.0175889 
-0.00680272 -0.0155068 0.0180166 
-0.00651722 -0.0155007 0.0184442 
-0.00623164 -0.0154946 0.0188718 
-0.00594607 -0.0154884 0.0192994 
-0.00566056 -0.0154823 0.0197271 
-0.00537499 -0.0154762 0.0201547 
-0.00500804 -0.0154782 0.0204943 
-0.00455973 -0.0154884 0.020746 
-0.00419279 -0.0154904 0.0210856 
-0.0037444 -0.0155007 0.0213372 
-0.00337746 -0.0155027 0.0216768 
-0.00284777 -0.0155211 0.0218405 
-0.00239939 -0.0155313 0.0220921 
-0.00186964 -0.0155497 0.0222558 
-0.00142126 -0.0155599 0.0225073 
-0.000972944 -0.0155702 0.022759 
-0.000524562 -0.0155803 0.0230106 
5.18985e-06 -0.0155988 0.0231742 
0.000534874 -0.0156171 0.0233379 
0.00106469 -0.0156355 0.0235015 
0.00167582 -0.015662 0.0235772 
0.00228694 -0.0156886 0.0236528 
0.00281669 -0.015707 0.0238164 
0.0046489 -0.0158562 0.0225721 
0.00509729 -0.0158664 0.0228237 
0.00562704 -0.0158848 0.0229873 
0.00623816 -0.0159114 0.023063 
0.00684935 -0.0159379 0.0231386 
0.0073791 -0.0159563 0.0233022 
0.00799022 -0.0159828 0.0233778 
0.00868278 -0.0160176 0.0233655 
0.00921254 -0.016036 0.0235291 
0.00998653 -0.0160788 0.0234287 
0.0105977 -0.0161054 0.0235044 
0.011453 -0.0161565 0.023316 
0.0132039 -0.0162974 0.0221596 
0.0137336 -0.0163159 0.0223233 
0.0141005 -0.0163179 0.0226629 
0.0147117 -0.0163445 0.0227385 
0.0154142 -0.0163825 0.0227154 
0.0161266 -0.016424 0.0226815 
0.0167527 -0.0164556 0.022741 
0.0175515 -0.0165068 0.0226137 
0.0183503 -0.0165581 0.0224864 
0.0190628 -0.0165995 0.0224525 
0.0196888 -0.0166311 0.022512 
0.020574 -0.0166923 0.0222914 
0.0213728 -0.0167435 0.0221641 
0.0223444 -0.0168145 0.0218501 
0.0233159 -0.0168855 0.021536 
0.0241147 -0.0169367 0.0214088 
0.0254318 -0.0170472 0.0207212 
0.0264034 -0.0171181 0.0204072 
0.0274613 -0.0171989 0.0199998 
0.0286056 -0.0172896 0.019499 
0.0294044 -0.0173408 0.0193717 
0.0313261 -0.0175202 0.0180305 
0.0320386 -0.0175616 0.0179966 
0.032751 -0.017603 0.0179627 
0.0333771 -0.0176346 0.0180222 
0.0345214 -0.0177253 0.0175214 
0.0354929 -0.0177963 0.0172074 
0.0364645 -0.0178672 0.0168933 
0.0372633 -0.0179186 0.0167661 
0.0401351 -0.0182061 0.0143977 
0.041193 -0.018287 0.0139903 
0.0419919 -0.0183383 0.013863 
0.0427906 -0.0183895 0.0137358 
0.0495493 -0.0191203 0.00716529 
0.0515573 -0.0193095 0.0057307 
-0.0626855 -0.0147868 -0.0397455 
-0.0650862 -0.0145139 -0.036414 
-0.0647192 -0.0145159 -0.0360744 
-0.0662245 -0.0143319 -0.0337109 
-0.0661017 -0.0143096 -0.0331073 
-0.0660604 -0.0142793 -0.0324157 
-0.0662632 -0.0142247 -0.0314601 
-0.0667103 -0.0141459 -0.0302405 
-0.0668317 -0.0140994 -0.0293729 
-0.0667904 -0.014069 -0.0286813 
-0.0676444 -0.0139497 -0.0270217 
-0.0678473 -0.0138951 -0.0260662 
-0.0685385 -0.013792 -0.0245826 
-0.0687414 -0.0137373 -0.023627 
-0.0687814 -0.013699 -0.0228474 
-0.0689029 -0.0136525 -0.0219798 
-0.0690243 -0.0136059 -0.0211122 
-0.068983 -0.0135756 -0.0204206 
-0.0691045 -0.0135291 -0.019553 
-0.0690631 -0.0134988 -0.0188614 
-0.0691031 -0.0134604 -0.0180818 
-0.0690618 -0.0134301 -0.0173902 
-0.0690205 -0.0133997 -0.0166986 
-0.0689791 -0.0133694 -0.0160069 
-0.0688564 -0.0133471 -0.0154033 
-0.0687336 -0.013325 -0.0147997 
-0.0686923 -0.0132946 -0.0141081 
-0.0686509 -0.0132643 -0.0134165 
-0.0685282 -0.0132421 -0.0128129 
-0.068324 -0.0132279 -0.0122973 
-0.0681199 -0.0132137 -0.0117816 
-0.0679971 -0.0131916 -0.0111781 
-0.067793 -0.0131774 -0.0106624 
-0.0675889 -0.0131632 -0.0101468 
-0.0673847 -0.0131491 -0.00963117 
-0.0670992 -0.0131431 -0.00920358 
-0.066895 -0.0131289 -0.00868795 
-0.0667722 -0.0131067 -0.00808436 
-0.0666496 -0.0130844 -0.0074807 
-0.0666082 -0.0130542 -0.00678914 
-0.0664855 -0.0130319 -0.00618548 
-0.0663627 -0.0130097 -0.00558189 
-0.0663214 -0.0129793 -0.00489026 
-0.0661986 -0.0129571 -0.00428667 
-0.0659945 -0.0129429 -0.00377104 
-0.0657903 -0.0129289 -0.00325541 
-0.0655862 -0.0129147 -0.00273978 
-0.0653006 -0.0129086 -0.00231219 
-0.0650965 -0.0128945 -0.00179656 
-0.0648109 -0.0128885 -0.00136897 
-0.0645254 -0.0128824 -0.000941308 
-0.0641585 -0.0128845 -0.000601679 
-0.0639543 -0.0128703 -8.60511e-05 
-0.0636687 -0.0128642 0.000341541 
-0.0633018 -0.0128663 0.00068117 
-0.0630162 -0.0128602 0.00110876 
-0.0627307 -0.0128542 0.00153643 
-0.0623638 -0.0128563 0.00187606 
-0.0620782 -0.0128502 0.00230365 
-0.0617113 -0.0128522 0.00264328 
-0.0614257 -0.0128462 0.00307094 
-0.0610588 -0.0128482 0.00341057 
-0.0607732 -0.0128421 0.00383816 
-0.0604063 -0.0128442 0.00417779 
-0.059958 -0.0128543 0.00442946 
-0.059591 -0.0128564 0.00476909 
-0.0592241 -0.0128584 0.00510871 
-0.0587757 -0.0128686 0.00536031 
-0.0583274 -0.0128787 0.00561197 
-0.057879 -0.0128887 0.00586357 
-0.0575121 -0.0128908 0.00620319 
-0.0570637 -0.0129009 0.00645486 
-0.0566154 -0.0129111 0.00670653 
-0.056167 -0.0129212 0.00695812 
-0.0557187 -0.0129314 0.00720978 
-0.0552704 -0.0129415 0.00746138 
-0.0549034 -0.0129436 0.007801 
-0.0543737 -0.0129617 0.00796463 
-0.0539253 -0.0129719 0.0082163 
-0.053477 -0.012982 0.00846797 
-0.0530286 -0.0129922 0.00871956 
-0.0525803 -0.0130023 0.00897122 
-0.0520506 -0.0130205 0.00913485 
-0.0516022 -0.0130306 0.00938645 
