ply
format ascii 1.0
element vertex 1417
property double x
property double y
property double z
element face 0
property list uchar int vertex_indices
end_header
-0.00892084 -0.0194196 0.00626208 
-0.00939785 -0.0194189 0.0061122 
-0.00990438 -0.0193263 0.00605673 
-0.0102629 -0.0196917 0.00552786 
-0.0107399 -0.019691 0.00537798 
-0.0111574 -0.0198726 0.00503793 
-0.0116049 -0.0199638 0.00479365 
-0.0119631 -0.0203284 0.00426411 
-0.0122918 -0.020785 0.00364016 
-0.0127984 -0.0206924 0.00358469 
-0.0133051 -0.0206005 0.00352989 
-0.0134261 -0.0216967 0.00224173 
-0.0143184 -0.020416 0.00341961 
-0.0144394 -0.0215122 0.00213144 
-0.0151834 -0.0206889 0.00283527 
-0.0155714 -0.0209624 0.00240083 
-0.0161374 -0.0206874 0.00253551 
-0.0167629 -0.0202301 0.00286036 
-0.0172992 -0.0200464 0.00289996 
-0.0178355 -0.0198626 0.00293956 
-0.0184015 -0.0195877 0.00307425 
-0.0189082 -0.0194958 0.00301944 
-0.0194445 -0.019312 0.00305906 
-0.019981 -0.019129 0.00309933 
-0.0205767 -0.0187629 0.0033291 
-0.0212596 -0.0181274 0.00383742 
-0.0218487 -0.0177837 0.00404587 
-0.0224095 -0.0175248 0.00416388 
-0.0229146 -0.0174385 0.00410375 
-0.0234197 -0.0173522 0.00404362 
-0.0239245 -0.0172652 0.0039828 
-0.0244296 -0.0171789 0.00392267 
-0.0250185 -0.0168344 0.00413044 
-0.0255514 -0.0166619 0.00415938 
-0.0261124 -0.0164037 0.00427808 
-0.0266175 -0.0163174 0.00421793 
-0.0271504 -0.0161448 0.00424689 
-0.0276834 -0.0159722 0.00427581 
-0.0281604 -0.0159715 0.00412593 
-0.0286374 -0.0159708 0.00397605 
-0.0291425 -0.0158845 0.00391592 
-0.0296473 -0.0157975 0.00385512 
-0.0301243 -0.0157968 0.00370523 
-0.0306013 -0.0157961 0.00355535 
-0.0311064 -0.0157098 0.0034952 
-0.0315834 -0.0157091 0.00334532 
-0.0320604 -0.0157083 0.00319543 
-0.0325094 -0.0157932 0.00295581 
-0.0329864 -0.0157925 0.00280593 
-0.0334634 -0.0157918 0.00265605 
-0.0339404 -0.0157911 0.00250616 
-0.0343895 -0.0158766 0.0022672 
-0.0348385 -0.0159615 0.00202756 
-0.0353155 -0.0159608 0.00187767 
-0.0357365 -0.016132 0.00154898 
-0.0361855 -0.0162168 0.00130934 
-0.0366346 -0.0163024 0.00107037 
-0.0370836 -0.0163873 0.000830755 
-0.0375325 -0.0164722 0.000591116 
-0.0379536 -0.0166433 0.000262401 
-0.0384027 -0.0167289 2.34497e-05 
-0.0388516 -0.0168138 -0.00021619 
-0.0392727 -0.0169849 -0.000544884 
-0.0397216 -0.0170698 -0.00078453 
-0.0401427 -0.017241 -0.00111324 
-0.0405919 -0.0173265 -0.00135219 
-0.0410408 -0.0174114 -0.00159183 
-0.0414897 -0.0174963 -0.00183147 
-0.0419948 -0.01741 -0.0018916 
-0.0424718 -0.0174093 -0.00204148 
-0.0429488 -0.0174086 -0.00219136 
-0.0434539 -0.0173223 -0.00225149 
-0.0439868 -0.0171497 -0.00222256 
-0.0444917 -0.0170627 -0.00228337 
-0.0450248 -0.0168908 -0.00225375 
-0.0455297 -0.0168038 -0.00231456 
-0.0460348 -0.0167175 -0.00237469 
-0.0465397 -0.0166305 -0.0024355 
-0.0470447 -0.0165442 -0.00249564 
-0.0475217 -0.0165435 -0.00264552 
-0.0480266 -0.0164565 -0.00270633 
-0.0485317 -0.0163702 -0.00276645 
-0.0490087 -0.0163695 -0.00291634 
-0.0494857 -0.0163688 -0.00306622 
-0.0499627 -0.0163681 -0.0032161 
-0.0504397 -0.0163673 -0.00336599 
-0.0509167 -0.0163666 -0.00351587 
-0.0514218 -0.0162803 -0.00357602 
-0.0518988 -0.0162796 -0.0037259 
-0.0523758 -0.0162789 -0.00387579 
-0.0528528 -0.0162782 -0.00402567 
-0.0533298 -0.0162775 -0.00417555 
-0.0537788 -0.0163624 -0.00441517 
-0.0542558 -0.0163616 -0.00456506 
-0.0547328 -0.0163609 -0.00471494 
-0.0552098 -0.0163602 -0.00486482 
-0.0556587 -0.0164451 -0.00510446 
-0.0561357 -0.0164444 -0.00525435 
-0.0565848 -0.01653 -0.00549331 
-0.0570619 -0.0165293 -0.0056432 
-0.0575108 -0.0166141 -0.00588283 
-0.0579599 -0.0166997 -0.00612178 
-0.0584089 -0.0167846 -0.00636142 
-0.0588859 -0.0167839 -0.0065113 
-0.0593069 -0.016955 -0.00684 
-0.059784 -0.0169543 -0.00698988 
-0.0602329 -0.0170392 -0.00722953 
-0.060682 -0.0171248 -0.00746849 
-0.061131 -0.0172096 -0.00770813 
-0.0615801 -0.0172952 -0.00794707 
-0.0619731 -0.017552 -0.00836553 
-0.062422 -0.0176368 -0.00860517 
-0.0628712 -0.0177224 -0.00884413 
-0.0632642 -0.0179792 -0.00926259 
-0.0636555 -0.0182415 -0.00968637 
-0.0640733 -0.0184238 -0.0100257 
-0.0644908 -0.0186055 -0.0103658 
-0.0649085 -0.0187878 -0.0107052 
-0.065326 -0.0189694 -0.0110452 
-0.0657438 -0.0191518 -0.0113846 
-0.066191 -0.0192422 -0.0116295 
-0.0666385 -0.0193334 -0.0118738 
-0.0670561 -0.019515 -0.0122139 
-0.0674738 -0.0196974 -0.0125533 
-0.0678915 -0.0198797 -0.0128926 
-0.0683388 -0.0199702 -0.0131376 
-0.0687565 -0.0201525 -0.013477 
-0.0691445 -0.020426 -0.0139114 
-0.0695621 -0.0206076 -0.0142515 
-0.0699203 -0.0209723 -0.014781 
-0.0702788 -0.0213377 -0.0153099 
-0.0705778 -0.0218855 -0.0160289 
-0.070847 -0.0225244 -0.016843 
-0.0710865 -0.0232544 -0.0177522 
-0.0711482 -0.0245337 -0.0192298 
-0.0714472 -0.0250814 -0.0199488 
-0.0716867 -0.0258115 -0.020858 
-0.0719562 -0.0264511 -0.0216715 
-0.0723442 -0.0267246 -0.0221059 
-0.072732 -0.0269974 -0.022541 
-0.0730015 -0.027637 -0.0233545 
-0.0733005 -0.0281848 -0.0240735 
-0.0735697 -0.0288237 -0.0248876 
-0.0733939 -0.0308337 -0.0271246 
-0.0736334 -0.0315638 -0.0280338 
-0.0732796 -0.0341222 -0.0308398 
-0.0735786 -0.03467 -0.0315589 
0.0353051 -0.0252166 0.0147677 
0.0346501 -0.0246675 0.0151869 
0.0338173 -0.0235692 0.0161747 
0.0332512 -0.0232942 0.0163093 
0.0325667 -0.0226532 0.016823 
0.0320304 -0.0224694 0.0168626 
0.0315237 -0.0223775 0.0168078 
0.0309577 -0.0221026 0.0169425 
0.0303621 -0.0217358 0.0171716 
0.0297666 -0.021369 0.0174007 
0.0292303 -0.0211852 0.0174403 
0.0286643 -0.0209103 0.017575 
0.0280983 -0.0206353 0.0177097 
0.0275323 -0.0203604 0.0178443 
0.0270257 -0.0202678 0.0177889 
0.0264597 -0.0199929 0.0179236 
0.0258937 -0.0197179 0.0180582 
0.0253277 -0.019443 0.0181929 
0.0248212 -0.0193504 0.0181375 
0.0242551 -0.0190755 0.0182721 
0.0236891 -0.0188005 0.0184068 
0.0231841 -0.0187142 0.0183467 
0.0226511 -0.0185416 0.0183756 
0.0221182 -0.0183691 0.0184046 
0.0215852 -0.0181965 0.0184335 
0.0210523 -0.0180239 0.0184625 
0.0205474 -0.0179369 0.0184016 
0.0199864 -0.0176787 0.0185203 
0.0195094 -0.017678 0.0183704 
0.0189765 -0.0175054 0.0183994 
0.0184716 -0.0174184 0.0183386 
0.0179946 -0.0174177 0.0181887 
0.0174895 -0.0173314 0.0181286 
0.0170125 -0.0173307 0.0179787 
0.0165077 -0.0172437 0.0179179 
0.0160026 -0.0171574 0.0178577 
0.0155256 -0.0171567 0.0177078 
0.0150207 -0.0170697 0.017647 
0.0145437 -0.017069 0.0174972 
0.0140667 -0.0170683 0.0173473 
0.0136456 -0.0172394 0.0170186 
0.0131405 -0.0171531 0.0169584 
0.0126916 -0.017238 0.0167188 
0.0122425 -0.0173236 0.0164798 
0.0117935 -0.0174084 0.0162402 
0.0113165 -0.0174077 0.0160903 
0.0108395 -0.017407 0.0159404 
0.0103904 -0.0174926 0.0157015 
0.00991337 -0.0174919 0.0155516 
0.00943637 -0.0174912 0.0154017 
0.00890343 -0.0173186 0.0154307 
0.00839857 -0.0172316 0.0153698 
0.00789349 -0.0171453 0.0153097 
0.00738862 -0.0170583 0.0152489 
0.00688354 -0.016972 0.0151888 
0.0063506 -0.0167994 0.0152177 
0.0058736 -0.0167987 0.0150678 
0.00536852 -0.0167124 0.0150077 
0.00489151 -0.0167117 0.0148578 
0.00441451 -0.016711 0.0147079 
0.0039375 -0.0167103 0.014558 
0.00348857 -0.0167951 0.0143184 
0.0030675 -0.0169663 0.0139897 
0.00261856 -0.0170512 0.0137501 
0.00219749 -0.0172223 0.0134214 
0.00177642 -0.0173935 0.0130927 
0.00135534 -0.0175646 0.0127639 
0.000934272 -0.0177358 0.0124352 
0.000513197 -0.017907 0.0121065 
9.21289e-05 -0.0180781 0.0117778 
-0.000328948 -0.0182493 0.0114491 
-0.000750016 -0.0184205 0.0111204 
-0.00114323 -0.0186779 0.0107026 
-0.00156243 -0.0188539 0.0103679 
-0.00198016 -0.0190363 0.0100285 
-0.00236816 -0.0193098 0.00959408 
-0.00281564 -0.019401 0.00934979 
-0.00323338 -0.0195833 0.00901043 
-0.00365091 -0.0197649 0.00867039 
-0.00415765 -0.019673 0.00861557 
-0.00457539 -0.0198554 0.00827621 
-0.0050524 -0.0198547 0.00812633 
-0.00547013 -0.020037 0.00778694 
-0.0059174 -0.0201275 0.00754199 
-0.0063944 -0.0201268 0.0073921 
-0.00681214 -0.0203091 0.00705272 
-0.0071704 -0.0206738 0.00652319 
-0.00761788 -0.0207649 0.0062789 
-0.00809488 -0.0207642 0.00612902 
-0.00848288 -0.0210378 0.00569456 
-0.00890062 -0.0212201 0.00535519 
-0.00931836 -0.0214024 0.00501582 
-0.00970635 -0.0216759 0.00458136 
-0.0101536 -0.0217664 0.00433641 
-0.0105714 -0.0219487 0.00399702 
-0.0110484 -0.021948 0.00384714 
-0.0111993 -0.0229538 0.00265473 
-0.0118246 -0.0224958 0.00297891 
-0.0122718 -0.0225862 0.00273394 
-0.0125116 -0.023317 0.00182542 
-0.0129886 -0.0233163 0.00167554 
-0.0135843 -0.0229502 0.00190531 
-0.0140018 -0.0231318 0.00156527 
-0.014301 -0.0236803 0.000846907 
-0.0148671 -0.0234053 0.000981609 
-0.0154626 -0.0230385 0.0012107 
-0.0158506 -0.023312 0.000776236 
-0.0164166 -0.0230371 0.000910933 
-0.0170716 -0.0224879 0.00133019 
-0.0179045 -0.0213896 0.00231791 
-0.0184703 -0.021114 0.00245193 
-0.019066 -0.0207479 0.00268169 
-0.0195725 -0.0206553 0.00262621 
-0.020109 -0.0204722 0.00266649 
-0.0207343 -0.0200142 0.00299067 
-0.0213891 -0.0194643 0.00340926 
-0.0220144 -0.0190064 0.00373343 
-0.0226644 -0.018474 0.00413669 
-0.0231974 -0.0183014 0.00416563 
-0.0237022 -0.0182144 0.00410482 
-0.0242073 -0.0181281 0.00404469 
-0.0247402 -0.0179555 0.00407362 
-0.0252451 -0.0178685 0.00401282 
-0.0257502 -0.0177822 0.00395267 
-0.0262831 -0.0176096 0.00398161 
-0.0268439 -0.0173507 0.00409963 
-0.0273209 -0.01735 0.00394975 
-0.0278819 -0.0170919 0.00406843 
-0.0283868 -0.0170049 0.00400763 
-0.0288919 -0.0169186 0.00394749 
-0.0293689 -0.0169179 0.00379761 
-0.029874 -0.0168316 0.00373746 
-0.030351 -0.0168309 0.00358758 
-0.0308558 -0.0167438 0.00352677 
-0.0313609 -0.0166575 0.00346665 
-0.0318098 -0.0167424 0.00322701 
-0.0322869 -0.0167417 0.00307712 
-0.0327639 -0.016741 0.00292724 
-0.0332409 -0.0167403 0.00277736 
-0.03369 -0.0168259 0.00253839 
-0.0341389 -0.0169107 0.00229877 
-0.034616 -0.01691 0.00214889 
-0.035037 -0.0170812 0.00182017 
-0.035486 -0.0171661 0.00158054 
-0.035963 -0.0171653 0.00143066 
-0.0364121 -0.0172509 0.00119171 
-0.0368332 -0.0174221 0.000862998 
-0.0372821 -0.0175069 0.000623372 
-0.0377313 -0.0175925 0.000384406 
-0.0381523 -0.0177637 5.56986e-05 
-0.0386013 -0.0178486 -0.000183927 
-0.0390504 -0.0179341 -0.000422893 
-0.0394715 -0.0181053 -0.000751587 
-0.0399204 -0.0181902 -0.000991226 
-0.0403974 -0.0181895 -0.00114111 
-0.0408466 -0.018275 -0.00138007 
-0.0413236 -0.0182743 -0.00152995 
-0.0418284 -0.0181873 -0.00159076 
-0.0423054 -0.0181866 -0.00174064 
-0.0428105 -0.0181003 -0.00180077 
-0.0433435 -0.0179277 -0.00177185 
-0.0438483 -0.0178407 -0.00183265 
-0.0443534 -0.0177544 -0.00189279 
-0.0448863 -0.0175818 -0.00186385 
-0.0453912 -0.0174948 -0.00192465 
-0.0459241 -0.0173223 -0.00189572 
-0.0464292 -0.017236 -0.00195585 
-0.0469062 -0.0172352 -0.00210574 
-0.0474392 -0.0170627 -0.0020768 
-0.0479162 -0.017062 -0.00222669 
-0.048421 -0.0169749 -0.00228749 
-0.048898 -0.0169742 -0.00243737 
-0.0493751 -0.0169735 -0.00258726 
-0.0498801 -0.0168872 -0.00264739 
-0.0503571 -0.0168865 -0.00279727 
-0.0508341 -0.0168858 -0.00294716 
-0.0513111 -0.0168851 -0.00309704 
-0.0518162 -0.0167988 -0.00315719 
-0.0522932 -0.0167981 -0.00330707 
-0.0527702 -0.0167974 -0.00345696 
-0.0532472 -0.0167967 -0.00360684 
-0.0536962 -0.0168815 -0.00384646 
-0.0541732 -0.0168808 -0.00399634 
-0.0546502 -0.0168801 -0.00414623 
-0.0550991 -0.016965 -0.00438586 
-0.0555761 -0.0169643 -0.00453574 
-0.0560531 -0.0169635 -0.00468563 
-0.0565023 -0.0170491 -0.00492459 
-0.0570071 -0.0169621 -0.00498539 
-0.0574563 -0.0170477 -0.00522436 
-0.0579052 -0.0171326 -0.00546399 
-0.0583544 -0.0172182 -0.00570294 
-0.0588033 -0.017303 -0.00594258 
-0.0592803 -0.0173023 -0.00609246 
-0.0597294 -0.0173879 -0.00633142 
-0.0601784 -0.0174728 -0.00657105 
-0.0606275 -0.0175583 -0.00681001 
-0.0610765 -0.0176432 -0.00704964 
-0.0615256 -0.0177288 -0.0072886 
-0.0619467 -0.0178999 -0.00761731 
-0.0623956 -0.0179848 -0.00785695 
-0.0628167 -0.018156 -0.00818564 
-0.0632378 -0.0183271 -0.00851436 
-0.063631 -0.0185846 -0.00893213 
-0.0640502 -0.0187606 -0.00926684 
-0.0644384 -0.0190348 -0.00970062 
-0.0648559 -0.0192165 -0.0100407 
-0.0653034 -0.0193077 -0.010285 
-0.0657211 -0.01949 -0.0106243 
-0.0661386 -0.0196716 -0.0109644 
-0.0665861 -0.0197628 -0.0112087 
-0.0670334 -0.0198532 -0.0114536 
-0.0674214 -0.0201268 -0.0118881 
-0.0678689 -0.0202179 -0.0121324 
-0.0682866 -0.0204003 -0.0124718 
-0.0687041 -0.0205819 -0.0128118 
-0.0690923 -0.0208561 -0.0132456 
-0.0694803 -0.0211296 -0.01368 
-0.0698683 -0.0214031 -0.0141145 
-0.0702268 -0.0217685 -0.0146433 
-0.0705555 -0.0222251 -0.0152673 
-0.0709138 -0.0225898 -0.0157968 
-0.071124 -0.0234124 -0.0167998 
-0.0711859 -0.0246924 -0.0182767 
-0.0714256 -0.0254232 -0.0191852 
-0.0717544 -0.0258798 -0.0198092 
-0.0720534 -0.0264275 -0.0205282 
-0.0723526 -0.0269759 -0.0212466 
-0.0727406 -0.0272494 -0.021681 
-0.0730395 -0.0277972 -0.0224001 
-0.073309 -0.0284368 -0.0232135 
-0.0735192 -0.0292595 -0.0242164 
-0.0737292 -0.0300814 -0.02522 
-0.0736428 -0.0318186 -0.027171 
-0.0731709 -0.0347446 -0.0303548 
-0.0735294 -0.0351101 -0.0308837 
-0.0739469 -0.0352917 -0.0312237 
0.0337179 -0.0250071 0.0156501 
0.0330928 -0.0245484 0.0159736 
0.0325268 -0.0242735 0.0161083 
0.0318127 -0.0235406 0.0167164 
0.0312469 -0.0232649 0.0168504 
0.0307402 -0.023173 0.0167956 
0.0302039 -0.0229892 0.0168352 
0.0296381 -0.0227136 0.0169692 
0.0290721 -0.0224387 0.0171039 
0.0285061 -0.0221637 0.0172386 
0.0279698 -0.02198 0.0172782 
0.027404 -0.0217043 0.0174122 
0.026838 -0.0214294 0.0175469 
0.0262424 -0.0210626 0.017776 
0.0257062 -0.0208788 0.0178156 
0.0251106 -0.020512 0.0180447 
0.0245744 -0.0203282 0.0180843 
0.0240381 -0.0201445 0.0181239 
0.0234723 -0.0198688 0.0182579 
0.022936 -0.019685 0.0182975 
0.02237 -0.0194101 0.0184322 
0.021893 -0.0194094 0.0182823 
0.0213584 -0.0192312 0.0183166 
0.0207976 -0.0189724 0.0184346 
0.0202647 -0.0187998 0.0184635 
0.0197317 -0.0186272 0.0184925 
0.0192547 -0.0186265 0.0183426 
0.0187218 -0.0184539 0.0183715 
0.0182169 -0.0183669 0.0183107 
0.0177118 -0.0182806 0.0182506 
0.0172629 -0.0183655 0.0180109 
0.0167578 -0.0182792 0.0179508 
0.016253 -0.0181922 0.01789 
0.0157759 -0.0181915 0.0177401 
0.0152989 -0.0181907 0.0175902 
0.0148219 -0.01819 0.0174403 
0.0143449 -0.0181893 0.0172905 
0.0138679 -0.0181886 0.0171406 
0.0134188 -0.0182742 0.0169016 
0.0129977 -0.0184453 0.0165729 
0.0125207 -0.0184446 0.016423 
0.0120437 -0.0184439 0.0162731 
0.0115948 -0.0185288 0.0160335 
0.0111178 -0.0185281 0.0158836 
0.0106407 -0.0185274 0.0157337 
0.0101637 -0.0185266 0.0155839 
0.00965866 -0.0184404 0.0155237 
0.0091538 -0.0183534 0.0154629 
0.00864872 -0.0182671 0.0154028 
0.00811578 -0.0180945 0.0154317 
0.00763878 -0.0180938 0.0152818 
0.00713391 -0.0180068 0.015221 
0.00660097 -0.0178342 0.01525 
0.00612397 -0.0178335 0.0151001 
0.00561889 -0.0177472 0.0150399 
0.00511403 -0.0176602 0.0149791 
0.00466488 -0.0177458 0.0147402 
0.00421595 -0.0178306 0.0145005 
0.0037668 -0.0179162 0.0142616 
0.00331787 -0.0180011 0.0140219 
0.00286872 -0.0180866 0.013783 
0.00244765 -0.0182578 0.0134543 
0.00199872 -0.0183427 0.0132147 
0.00157764 -0.0185138 0.012886 
0.00118443 -0.0187713 0.0124682 
0.00070742 -0.0187706 0.0123183 
0.000314208 -0.019028 0.0119005 
-7.87921e-05 -0.0192848 0.0114821 
-0.000467005 -0.019559 0.0110483 
-0.000884742 -0.0197413 0.0107089 
-0.00127274 -0.0200148 0.0102745 
-0.00169048 -0.0201972 0.00993508 
-0.00207869 -0.0204714 0.0095013 
-0.00249643 -0.0206537 0.00916193 
-0.00291417 -0.0208361 0.00882255 
-0.00330216 -0.0211096 0.0083881 
-0.0037199 -0.0212919 0.00804873 
-0.00413764 -0.0214743 0.00770935 
-0.00467391 -0.0212905 0.00774896 
-0.00500286 -0.0217478 0.00712569 
-0.00545012 -0.0218382 0.00688071 
-0.00577907 -0.0222955 0.00625746 
-0.0061968 -0.0224778 0.00591808 
-0.00667381 -0.0224771 0.00576819 
-0.0070618 -0.0227506 0.00533373 
-0.00750907 -0.0228411 0.00508877 
-0.00789728 -0.0231153 0.00465499 
-0.00831502 -0.0232977 0.00431562 
-0.00852521 -0.0241203 0.00331269 
-0.00897269 -0.0242115 0.0030684 
-0.00950897 -0.0240277 0.00310801 
-0.00995623 -0.0241182 0.00286304 
-0.0102852 -0.0245755 0.00223977 
-0.0106436 -0.0249409 0.00171091 
-0.0111206 -0.0249401 0.00156103 
-0.0113901 -0.0255798 0.000747589 
-0.0118969 -0.0254879 0.000692778 
-0.0122849 -0.0257614 0.000258329 
-0.0127026 -0.0259437 -8.104e-05 
-0.0131203 -0.0261261 -0.000420423 
-0.0135973 -0.0261254 -0.000570306 
-0.0141041 -0.0260335 -0.000625097 
-0.0146996 -0.0256667 -0.000396003 
-0.0152654 -0.025391 -0.000261996 
-0.0159202 -0.0248412 0.000156584 
-0.0163677 -0.0249323 -8.7692e-05 
-0.0167854 -0.0251147 -0.000427075 
-0.0172327 -0.0252051 -0.000672045 
-0.0185099 -0.0227336 0.00173653 
-0.019076 -0.0224586 0.00187122 
-0.0196715 -0.0220918 0.00210031 
-0.0202373 -0.0218162 0.00223432 
-0.0208033 -0.0215412 0.00236901 
-0.0214284 -0.0210825 0.00269252 
-0.0220832 -0.0205326 0.0031111 
-0.0226787 -0.0201658 0.0033402 
-0.0233335 -0.0196159 0.00375879 
-0.0239291 -0.0192491 0.00398787 
-0.0244901 -0.018991 0.00410656 
-0.0249949 -0.018904 0.00404575 
-0.0255 -0.0188177 0.00398562 
-0.026033 -0.0186451 0.00401457 
-0.0265657 -0.0184718 0.00404282 
-0.0270708 -0.0183855 0.00398268 
-0.0275756 -0.0182985 0.00392187 
-0.0280807 -0.0182122 0.00386173 
-0.0285856 -0.0181252 0.00380092 
-0.0290626 -0.0181245 0.00365104 
-0.0295955 -0.0179519 0.00367997 
-0.0301006 -0.0178656 0.00361984 
-0.0305776 -0.0178649 0.00346996 
-0.0310825 -0.0177779 0.00340915 
-0.0315595 -0.0177772 0.00325926 
-0.0320365 -0.0177765 0.00310938 
-0.0325135 -0.0177758 0.0029595 
-0.0329626 -0.0178614 0.00272054 
-0.0334116 -0.0179462 0.0024809 
-0.0338886 -0.0179455 0.00233102 
-0.0343656 -0.0179448 0.00218114 
-0.0348147 -0.0180304 0.00194219 
-0.0352637 -0.0181152 0.00170255 
-0.0357128 -0.0182008 0.00146359 
-0.0361617 -0.0182857 0.00122396 
-0.0365828 -0.0184568 0.00089526 
-0.037032 -0.0185424 0.000656295 
-0.037453 -0.0187136 0.000327601 
-0.0379022 -0.0187992 8.86423e-05 
-0.0383792 -0.0187984 -6.12414e-05 
-0.0388281 -0.0188833 -0.000300881 
-0.0392492 -0.0190545 -0.000629575 
-0.0397262 -0.0190538 -0.000779459 
-0.0401753 -0.0191393 -0.00101842 
-0.0406523 -0.0191386 -0.00116831 
-0.0411572 -0.0190516 -0.00122911 
-0.0416623 -0.0189653 -0.00128925 
-0.0421952 -0.0187927 -0.00126031 
-0.0427001 -0.0187057 -0.00132112 
-0.0432052 -0.0186194 -0.00138125 
-0.04371 -0.0185325 -0.00144208 
-0.0442149 -0.0184454 -0.00150288 
-0.0447478 -0.0182729 -0.00147395 
-0.0452808 -0.0181003 -0.001445 
-0.0457859 -0.018014 -0.00150514 
-0.0462907 -0.017927 -0.00156596 
-0.0467958 -0.0178407 -0.00162609 
-0.0473007 -0.0177537 -0.0016869 
-0.0478057 -0.0176674 -0.00174705 
-0.0483106 -0.0175804 -0.00180786 
-0.0487876 -0.0175797 -0.00195774 
-0.0492925 -0.0174927 -0.00201854 
-0.0497695 -0.017492 -0.00216842 
-0.0502465 -0.0174913 -0.00231831 
-0.0507516 -0.017405 -0.00237844 
-0.0512286 -0.0174043 -0.00252833 
-0.0517056 -0.0174035 -0.00267821 
-0.0521826 -0.0174028 -0.00282809 
-0.0526596 -0.0174021 -0.00297798 
-0.0531366 -0.0174014 -0.00312786 
-0.0536136 -0.0174007 -0.00327775 
-0.0540906 -0.0174 -0.00342763 
-0.0545676 -0.0173993 -0.00357751 
-0.0550446 -0.0173986 -0.0037274 
-0.0554935 -0.0174834 -0.00396703 
-0.0559986 -0.0173971 -0.00402716 
-0.0564476 -0.017482 -0.0042668 
-0.0569246 -0.0174813 -0.00441668 
-0.0574016 -0.0174806 -0.00456656 
-0.0578507 -0.0175662 -0.00480553 
-0.0583277 -0.0175655 -0.00495541 
-0.0587769 -0.017651 -0.00519437 
-0.0592258 -0.0177359 -0.00543399 
-0.0596749 -0.0178215 -0.00567295 
-0.060152 -0.0178208 -0.00582283 
-0.060573 -0.0179919 -0.00615153 
-0.06105 -0.0179912 -0.00630142 
-0.0614711 -0.0181624 -0.00663012 
-0.06192 -0.0182472 -0.00686976 
-0.0623411 -0.0184184 -0.00719846 
-0.0627624 -0.0185902 -0.00752648 
-0.0631835 -0.0187614 -0.00785519 
-0.0636045 -0.0189326 -0.0081839 
-0.0639975 -0.0191893 -0.00860236 
-0.0644153 -0.0193716 -0.00894172 
-0.0648035 -0.0196459 -0.00937551 
-0.0652508 -0.0197363 -0.00962047 
-0.0656685 -0.0199187 -0.00995984 
-0.066116 -0.0200098 -0.0102041 
-0.0665337 -0.0201922 -0.0105435 
-0.066981 -0.0202826 -0.0107885 
-0.0673987 -0.020465 -0.0111279 
-0.0678165 -0.0206473 -0.0114672 
-0.0682342 -0.0208297 -0.0118066 
-0.0686519 -0.021012 -0.012146 
-0.0690401 -0.0212862 -0.0125797 
-0.0694281 -0.0215597 -0.0130142 
-0.0698164 -0.0218339 -0.013448 
-0.0702043 -0.0221075 -0.0138824 
-0.0705628 -0.0224729 -0.0144113 
-0.0708916 -0.0229294 -0.0150352 
-0.0711612 -0.0235697 -0.015848 
-0.0713714 -0.0243924 -0.0168509 
-0.071404 -0.025765 -0.0184217 
-0.0717625 -0.0261303 -0.0189505 
-0.0720912 -0.0265869 -0.0195745 
-0.07242 -0.0270435 -0.0201984 
-0.0726896 -0.0276838 -0.0210112 
-0.0730481 -0.0280492 -0.02154 
-0.073288 -0.0287807 -0.0224479 
-0.073528 -0.0295122 -0.0233557 
-0.0737382 -0.0303349 -0.0243586 
-0.0736225 -0.0321647 -0.0264034 
-0.0737439 -0.0332623 -0.0276902 
-0.0735095 -0.0354575 -0.0301147 
-0.0738679 -0.0358229 -0.0306435 
0.032457 -0.0258033 0.0154893 
0.0317134 -0.0249785 0.0161918 
0.0310883 -0.0245198 0.0165153 
0.030552 -0.024336 0.0165549 
0.0299862 -0.0240604 0.0166889 
0.0294204 -0.0237848 0.0168229 
0.0288544 -0.0235098 0.0169576 
0.0282886 -0.0232342 0.0170916 
0.027693 -0.0228673 0.0173207 
0.0271568 -0.0226836 0.0173603 
0.026591 -0.0224079 0.0174944 
0.0260547 -0.0222242 0.017534 
0.0254889 -0.0219485 0.017668 
0.0249231 -0.0216729 0.017802 
0.0243571 -0.0213979 0.0179367 
0.023821 -0.0212135 0.0179756 
0.023255 -0.0209385 0.0181103 
0.0226892 -0.0206629 0.0182443 
0.0221529 -0.0204791 0.0182839 
0.0216464 -0.0203865 0.0182284 
0.0211397 -0.0202946 0.0181737 
0.0205739 -0.020019 0.0183077 
0.0200673 -0.0199264 0.0182522 
0.0195327 -0.0197482 0.0182865 
0.0190276 -0.0196619 0.0182263 
0.0184949 -0.0194886 0.0182546 
0.017962 -0.0193161 0.0182835 
0.0174571 -0.0192291 0.0182227 
0.017008 -0.0193146 0.0179837 
0.0165031 -0.0192276 0.0179229 
0.0160261 -0.0192269 0.0177731 
0.015577 -0.0193125 0.0175341 
0.0150999 -0.0193118 0.0173842 
0.0146229 -0.0193111 0.0172343 
0.0141459 -0.0193104 0.0170844 
0.0137249 -0.0194815 0.0167557 
0.0132479 -0.0194808 0.0166059 
0.0127987 -0.0195664 0.0163669 
0.0123496 -0.019652 0.016128 
0.0118726 -0.0196512 0.0159781 
0.0113955 -0.0196505 0.0158282 
0.0109466 -0.0197354 0.0155886 
0.0104415 -0.0196491 0.0155284 
0.00993667 -0.0195621 0.0154676 
0.00943181 -0.0194751 0.0154068 
0.00892673 -0.0193888 0.0153467 
0.00842187 -0.0193018 0.0152858 
0.00788893 -0.0191292 0.0153148 
0.00738407 -0.0190422 0.015254 
0.00687899 -0.0189559 0.0151938 
0.00640198 -0.0189552 0.0150439 
0.00589712 -0.0188682 0.0149831 
0.00544797 -0.0189538 0.0147442 
0.00497097 -0.0189531 0.0145943 
0.00449396 -0.0189524 0.0144444 
0.00404503 -0.0190373 0.0142048 
0.00362395 -0.0192084 0.0138761 
0.00314694 -0.0192077 0.0137262 
0.00275373 -0.0194651 0.0133084 
0.00230458 -0.0195507 0.0130695 
0.00191137 -0.0198082 0.0126517 
0.00143437 -0.0198074 0.0125018 
0.00101663 -0.0199898 0.0121624 
0.000628415 -0.020264 0.0117287 
0.000210682 -0.0204464 0.0113893 
-0.00020706 -0.0206287 0.0110499 
-0.00059527 -0.0209029 0.0106161 
-0.000953739 -0.0212683 0.0100873 
-0.00137147 -0.0214507 0.00974787 
-0.00178922 -0.021633 0.00940851 
-0.0021479 -0.0219991 0.00888031 
-0.00259516 -0.0220896 0.00863534 
-0.00298337 -0.0223638 0.00820156 
-0.00340111 -0.0225461 0.00786219 
-0.00381885 -0.0227285 0.00752281 
-0.00411826 -0.0232776 0.00680514 
-0.00456553 -0.0233681 0.00656016 
-0.00495374 -0.0236423 0.00612639 
-0.00537148 -0.0238246 0.00578702 
-0.00584848 -0.0238239 0.00563713 
-0.00626622 -0.0240063 0.00529775 
-0.00668396 -0.0241886 0.00495838 
-0.0070129 -0.0246459 0.0043351 
-0.00743064 -0.0248282 0.00399573 
-0.00773005 -0.0253774 0.00327805 
-0.00814779 -0.0255597 0.00293868 
-0.00847673 -0.026017 0.0023154 
-0.008924 -0.0261074 0.00207044 
-0.00937148 -0.0261986 0.00182615 
-0.00937455 -0.027663 0.000161013 
-0.0100294 -0.0271132 0.000579606 
-0.0104471 -0.0272955 0.000240223 
-0.0122989 -0.0289401 -0.00221394 
-0.0159608 -0.0264636 -0.000556116 
-0.0163785 -0.0266459 -0.000895499 
-0.0169148 -0.0264622 -0.000855884 
-0.0185203 -0.0244457 0.000927399 
-0.0191751 -0.0238959 0.00134598 
-0.0197704 -0.0235283 0.0015744 
-0.0203067 -0.0233446 0.001614 
-0.020843 -0.0231608 0.00165362 
-0.0214978 -0.0226109 0.0020722 
-0.0220636 -0.0223353 0.00220622 
-0.0228072 -0.0215105 0.00290871 
-0.023373 -0.0212348 0.00304272 
-0.0239388 -0.0209592 0.00317673 
-0.0244456 -0.0208673 0.00312194 
-0.0250409 -0.0204998 0.00335036 
-0.0255476 -0.0204079 0.00329555 
-0.0261727 -0.0199492 0.00361906 
-0.026709 -0.0197654 0.00365866 
-0.0272138 -0.0196784 0.00359786 
-0.0277468 -0.0195058 0.00362679 
-0.0282516 -0.0194188 0.00356598 
-0.0287286 -0.0194181 0.00341609 
-0.0292616 -0.0192455 0.00344503 
-0.0297945 -0.019073 0.00347396 
-0.0302715 -0.0190723 0.00332408 
-0.0307205 -0.0191571 0.00308446 
-0.0312255 -0.0190708 0.00302431 
-0.0317025 -0.0190701 0.00287442 
-0.0321515 -0.019155 0.0026348 
-0.0326565 -0.0190687 0.00257466 
-0.0331336 -0.019068 0.00242477 
-0.0335825 -0.0191528 0.00218515 
-0.0340595 -0.0191521 0.00203527 
-0.0345365 -0.0191514 0.00188539 
-0.0349856 -0.019237 0.00164643 
-0.0354067 -0.0194082 0.00131772 
-0.0358837 -0.0194074 0.00116784 
-0.036305 -0.0195793 0.000839817 
-0.036782 -0.0195786 0.000689933 
-0.037231 -0.0196635 0.0004503 
-0.0376801 -0.019749 0.000211335 
-0.0381274 -0.0198395 -3.3615e-05 
-0.0385748 -0.0199307 -0.000277918 
-0.0390223 -0.0200218 -0.000522207 
-0.0394993 -0.0200211 -0.00067209 
-0.0399763 -0.0200204 -0.000821974 
-0.0404829 -0.0199278 -0.000877452 
-0.0409894 -0.0198352 -0.000932917 
-0.041524 -0.019657 -0.000898653 
-0.0420291 -0.0195707 -0.000958787 
-0.0425618 -0.0193975 -0.000930535 
-0.0430947 -0.0192249 -0.000901595 
-0.0435996 -0.0191379 -0.000962404 
-0.0440766 -0.0191372 -0.00111229 
-0.0446095 -0.0189646 -0.00108336 
-0.0451425 -0.018792 -0.00105443 
-0.0456473 -0.018705 -0.00111524 
-0.0461524 -0.0186187 -0.00117538 
-0.0466854 -0.0184461 -0.00114644 
-0.0471902 -0.0183592 -0.00120726 
-0.0476672 -0.0183584 -0.00135714 
-0.0481721 -0.0182714 -0.00141794 
-0.0486772 -0.0181851 -0.00147809 
-0.049182 -0.0180981 -0.0015389 
-0.049659 -0.0180974 -0.00168879 
-0.0501639 -0.0180104 -0.00174959 
-0.0506409 -0.0180097 -0.00189948 
-0.051146 -0.0179234 -0.00195961 
-0.051623 -0.0179227 -0.00210949 
-0.0521 -0.017922 -0.00225937 
-0.052577 -0.0179213 -0.00240926 
-0.053054 -0.0179206 -0.00255914 
-0.053531 -0.0179199 -0.00270902 
-0.054008 -0.0179191 -0.00285891 
-0.054485 -0.0179184 -0.00300879 
-0.054962 -0.0179177 -0.00315868 
-0.055439 -0.017917 -0.00330856 
-0.0559161 -0.0179163 -0.00345844 
-0.0563931 -0.0179156 -0.00360833 
-0.0568701 -0.0179149 -0.00375821 
-0.057319 -0.0179997 -0.00399785 
-0.057796 -0.017999 -0.00414773 
-0.058273 -0.0179983 -0.00429762 
-0.0587222 -0.0180839 -0.00453658 
-0.0591713 -0.0181695 -0.00477553 
-0.0596202 -0.0182543 -0.00501515 
-0.0600972 -0.0182536 -0.00516504 
-0.0605464 -0.0183392 -0.005404 
-0.0609955 -0.0184248 -0.00564295 
-0.0614445 -0.0185096 -0.00588257 
-0.0618655 -0.0186808 -0.00621128 
-0.0623147 -0.0187664 -0.00645024 
-0.0627358 -0.0189375 -0.00677894 
-0.0631568 -0.0191087 -0.00710763 
-0.0635781 -0.0192805 -0.00743567 
-0.0639713 -0.019538 -0.00785344 
-0.0643627 -0.0198003 -0.00827722 
-0.0647806 -0.0199834 -0.00861593 
-0.0651984 -0.0201657 -0.00895529 
-0.0656456 -0.0202562 -0.00920027 
-0.0660931 -0.0203473 -0.00944457 
-0.0665108 -0.0205297 -0.00978393 
-0.0669286 -0.020712 -0.0101233 
-0.0673761 -0.0208032 -0.0103676 
-0.0677938 -0.0209855 -0.010707 
-0.0682115 -0.0211679 -0.0110463 
-0.0685997 -0.0214421 -0.0114801 
-0.0690175 -0.0216244 -0.0118195 
-0.0694057 -0.0218987 -0.0122533 
-0.0697937 -0.0221722 -0.0126877 
-0.0701819 -0.0224464 -0.0131215 
-0.0705404 -0.0228118 -0.0136504 
-0.0708693 -0.0232691 -0.0142737 
-0.0711983 -0.0237263 -0.0148969 
-0.0714977 -0.0242755 -0.0156146 
-0.071471 -0.0258311 -0.0173748 
-0.0717111 -0.0265633 -0.018282 
-0.0720696 -0.0269287 -0.0188109 
-0.0724281 -0.0272941 -0.0193397 
-0.0727275 -0.0278432 -0.0200574 
-0.0729379 -0.0286666 -0.0210597 
-0.0732373 -0.0292158 -0.0217774 
-0.0735661 -0.0296723 -0.0224013 
-0.0737469 -0.0305876 -0.0234979 
-0.07375 -0.0320521 -0.0251631 
-0.0738716 -0.0331503 -0.0264492 
-0.073401 -0.0360806 -0.029629 
-0.073789 -0.0363541 -0.0300634 
0.030959 -0.0258673 0.0160865 
0.0303932 -0.0255917 0.0162205 
0.0298274 -0.025316 0.0163545 
0.029232 -0.0249485 0.0165829 
0.0286662 -0.0246728 0.016717 
0.0281004 -0.0243972 0.016851 
0.0275642 -0.0242134 0.0168906 
0.0269688 -0.0238459 0.017119 
0.0264326 -0.0236621 0.0171586 
0.0258667 -0.0233865 0.0172926 
0.0253305 -0.0232027 0.0173322 
0.0247647 -0.0229271 0.0174662 
0.0241693 -0.0225595 0.0176947 
0.0236331 -0.0223758 0.0177343 
0.0231265 -0.0222832 0.0176788 
0.0225312 -0.0219156 0.0179072 
0.0219949 -0.0217319 0.0179468 
0.0214587 -0.0215481 0.0179864 
0.0209521 -0.0214555 0.017931 
0.0204159 -0.0212718 0.0179706 
0.0198798 -0.0210873 0.0180095 
0.019373 -0.0209954 0.0179547 
0.0188665 -0.0209028 0.0178992 
0.01836 -0.0208102 0.0178438 
0.0178532 -0.0207183 0.017789 
0.0172874 -0.0204427 0.017923 
0.0167809 -0.0203501 0.0178675 
0.0163039 -0.0203494 0.0177176 
0.0158269 -0.0203487 0.0175677 
0.0153794 -0.0204398 0.0173234 
0.0148729 -0.0203472 0.017268 
0.0144549 -0.0205303 0.0169293 
0.0140077 -0.0206207 0.0166843 
0.0135899 -0.0208031 0.0163449 
0.0131424 -0.0208943 0.0161006 
0.0126654 -0.0208935 0.0159507 
0.0121884 -0.0208928 0.0158009 
0.0117707 -0.0210752 0.0154615 
0.0112344 -0.0208914 0.0155011 
0.0107279 -0.0207988 0.0154456 
0.0102509 -0.0207981 0.0152957 
0.00971461 -0.0206143 0.0153353 
0.0092376 -0.0206136 0.0151855 
0.00870133 -0.0204298 0.0152251 
0.00816673 -0.0202517 0.0152593 
0.00768972 -0.020251 0.0151094 
0.00721272 -0.0202503 0.0149596 
0.00673571 -0.0202495 0.0148097 
0.00623084 -0.0201625 0.0147489 
0.00575384 -0.0201618 0.014599 
0.00533277 -0.020333 0.0142703 
0.00485576 -0.0203323 0.0141204 
0.00440828 -0.0204234 0.0138761 
0.00399054 -0.0206058 0.0135367 
0.00351354 -0.0206051 0.0133869 
0.00306606 -0.0206962 0.0131426 
0.00264832 -0.0208786 0.0128032 
0.00228964 -0.0212447 0.012275 
0.0018719 -0.021427 0.0119356 
0.0013949 -0.0214263 0.0117857 
0.000977159 -0.0216087 0.0114464 
0.00058895 -0.0218829 0.0110126 
0.00020074 -0.0221571 0.0105788 
-0.000217214 -0.0223401 0.0102401 
-0.000664478 -0.0224306 0.00999514 
-0.00105269 -0.0227048 0.00956135 
-0.0014409 -0.0229791 0.00912757 
-0.00179958 -0.0233452 0.00859938 
-0.00221731 -0.0235275 0.00825999 
-0.00251673 -0.0240767 0.00754231 
-0.00299374 -0.0240759 0.00739243 
-0.00323409 -0.0248089 0.00648592 
-0.00365183 -0.0249912 0.00614656 
-0.0041881 -0.0248074 0.00618616 
-0.00457631 -0.0250817 0.00575238 
-0.00487552 -0.0256301 0.00503403 
-0.00529346 -0.0258132 0.00469531 
-0.00571121 -0.0259955 0.00435595 
-0.00601062 -0.0265447 0.00363825 
-0.00631003 -0.0270938 0.00292057 
-0.0068463 -0.0269101 0.00296018 
-0.00726404 -0.0270924 0.00262081 
-0.00759298 -0.0275497 0.00199753 
-0.00798119 -0.0278239 0.00156374 
-0.00833987 -0.02819 0.00103555 
-0.00872808 -0.0284642 0.00060177 
-0.0198405 -0.0250589 0.000956099 
-0.0204654 -0.0245995 0.00127894 
-0.0209424 -0.0245987 0.00112906 
-0.0215379 -0.0242319 0.00135814 
-0.0221037 -0.0239563 0.00149217 
-0.0226102 -0.0238637 0.00143668 
-0.0233241 -0.0231301 0.00204409 
-0.023949 -0.0226706 0.00236693 
-0.0244852 -0.0224869 0.00240653 
-0.0250215 -0.0223031 0.00244615 
-0.0254985 -0.0223024 0.00229627 
-0.0259458 -0.0223929 0.0020513 
-0.0264525 -0.022301 0.0019965 
-0.0269591 -0.0222084 0.00194101 
-0.0274656 -0.0221158 0.00188554 
-0.0282387 -0.0211991 0.00268244 
-0.0288045 -0.0209235 0.00281645 
-0.0292518 -0.0210139 0.00257149 
-0.0297585 -0.020922 0.00251668 
-0.0302651 -0.0208294 0.00246121 
-0.0308606 -0.0204626 0.00269032 
-0.0313376 -0.0204619 0.00254043 
-0.0318441 -0.0203693 0.00248496 
-0.0322916 -0.0204605 0.00224067 
-0.0327389 -0.0205509 0.0019957 
-0.0332456 -0.020459 0.0019409 
-0.0336929 -0.0205495 0.00169593 
-0.0341699 -0.0205488 0.00154605 
-0.0346174 -0.02064 0.00130176 
-0.0350351 -0.0208223 0.000962374 
-0.0355417 -0.0207297 0.000906902 
-0.0359891 -0.0208209 0.000662606 
-0.0364661 -0.0208202 0.000512723 
-0.0369431 -0.0208195 0.000362839 
-0.0373906 -0.0209106 0.000118543 
-0.0378676 -0.0209099 -3.13405e-05 
-0.0383446 -0.0209092 -0.000181224 
-0.0388216 -0.0209085 -0.000331108 
-0.0393282 -0.0208159 -0.000386579 
-0.0398052 -0.0208152 -0.000536463 
-0.0403117 -0.0207226 -0.000591934 
-0.0408185 -0.0206307 -0.000646731 
-0.0413547 -0.0204469 -0.000607123 
-0.0418908 -0.0202625 -0.000568202 
-0.0424237 -0.0200899 -0.000539262 
-0.0429564 -0.0199166 -0.000511017 
-0.0434615 -0.0198303 -0.000571144 
-0.0439664 -0.0197433 -0.00063196 
-0.0444713 -0.0196563 -0.000692769 
-0.0450042 -0.0194837 -0.000663835 
-0.0455371 -0.0193112 -0.000634908 
-0.046042 -0.0192242 -0.000695717 
-0.0465469 -0.0191372 -0.000756533 
-0.0470519 -0.0190509 -0.000816661 
-0.0475568 -0.0189639 -0.00087749 
-0.0480617 -0.0188769 -0.000938299 
-0.0485387 -0.0188762 -0.00108818 
-0.0490716 -0.0187036 -0.00105926 
-0.0495765 -0.0186166 -0.00112007 
-0.0500535 -0.0186159 -0.00126995 
-0.0505583 -0.0185289 -0.00133076 
-0.0510353 -0.0185282 -0.00148065 
-0.0515124 -0.0185275 -0.00163053 
-0.0519894 -0.0185267 -0.00178041 
-0.0524944 -0.0184405 -0.00184055 
-0.0529714 -0.0184397 -0.00199043 
-0.0534484 -0.018439 -0.00214032 
-0.0539255 -0.0184383 -0.0022902 
-0.0544025 -0.0184376 -0.00244008 
-0.0549073 -0.0183506 -0.00250091 
-0.0553565 -0.0184362 -0.00273985 
-0.0558613 -0.0183492 -0.00280067 
-0.0563383 -0.0183485 -0.00295056 
-0.0567875 -0.018434 -0.0031895 
-0.0572645 -0.0184333 -0.00333939 
-0.0577415 -0.0184326 -0.00348927 
-0.0581904 -0.0185175 -0.0037289 
-0.0586674 -0.0185168 -0.00387879 
-0.0591166 -0.0186024 -0.00411774 
-0.0595657 -0.0186879 -0.0043567 
-0.0600149 -0.0187735 -0.00459564 
-0.0604638 -0.0188584 -0.00483527 
-0.060913 -0.0189439 -0.00507423 
-0.0613621 -0.0190295 -0.00531317 
-0.061811 -0.0191144 -0.00555281 
-0.0622602 -0.0191999 -0.00579176 
-0.0626813 -0.0193711 -0.00612046 
-0.0631025 -0.019543 -0.0064485 
-0.0635236 -0.0197141 -0.00677719 
-0.0639168 -0.0199715 -0.00719495 
-0.0643101 -0.020229 -0.00761274 
-0.064728 -0.020412 -0.00795142 
-0.0651753 -0.0205025 -0.00819639 
-0.065593 -0.0206848 -0.00853577 
-0.0660405 -0.020776 -0.00878007 
-0.0664582 -0.0209584 -0.00911943 
-0.0669057 -0.0210495 -0.00936373 
-0.0673234 -0.0212319 -0.00970309 
-0.0677709 -0.021323 -0.0099474 
-0.0681887 -0.0215054 -0.0102868 
-0.0685769 -0.0217796 -0.0107206 
-0.0689651 -0.0220538 -0.0111543 
-0.069383 -0.0222369 -0.011493 
-0.0697415 -0.0226023 -0.0120219 
-0.0701297 -0.0228765 -0.0124557 
-0.0704884 -0.0232426 -0.0129839 
-0.0708471 -0.0236087 -0.0135121 
-0.071176 -0.024066 -0.0141353 
-0.0714754 -0.0246151 -0.014853 
-0.071538 -0.0258972 -0.016328 
-0.0716303 -0.0270881 -0.0177079 
-0.0720185 -0.0273624 -0.0181417 
-0.0724067 -0.0276366 -0.0185755 
-0.0727061 -0.0281857 -0.0192931 
-0.0730055 -0.0287349 -0.0200108 
-0.0732457 -0.0294671 -0.020918 
-0.0734563 -0.0302912 -0.0219196 
-0.073726 -0.0309315 -0.0227324 
-0.0738478 -0.0320306 -0.0240179 
-0.0739105 -0.0333134 -0.0254922 
-0.0738546 -0.0349615 -0.0273461 
-0.073651 -0.0370691 -0.0296721 
0.0297866 -0.0269392 0.0156425 
0.0291913 -0.0265716 0.0158709 
0.0285369 -0.0260203 0.0162881 
0.0279416 -0.0256528 0.0165166 
0.0273758 -0.0253772 0.0166506 
0.0268692 -0.0252846 0.0165951 
0.0262739 -0.024917 0.0168235 
0.0257081 -0.0246414 0.0169575 
0.0251718 -0.0244576 0.0169971 
0.0246063 -0.0241813 0.0171305 
0.0240109 -0.0238137 0.0173589 
0.0235339 -0.023813 0.017209 
0.0229386 -0.0234455 0.0174375 
0.0224616 -0.0234448 0.0172876 
0.0218958 -0.0231691 0.0174216 
0.0213004 -0.0228016 0.01765 
0.0208234 -0.0228009 0.0175001 
0.0203167 -0.022709 0.0174453 
0.0197806 -0.0225245 0.0174843 
0.0192148 -0.0222489 0.0176183 
0.0187378 -0.0222482 0.0174684 
0.0182018 -0.0220637 0.0175073 
0.0177543 -0.0221549 0.017263 
0.017218 -0.0219711 0.0173027 
0.016682 -0.0217866 0.0173416 
0.0162345 -0.0218778 0.0170973 
0.0157279 -0.0217852 0.0170418 
0.0152509 -0.0217845 0.0168919 
0.014833 -0.0219675 0.0165532 
0.0143265 -0.0218749 0.0164978 
0.0139087 -0.0220573 0.0161584 
0.0134317 -0.0220566 0.0160085 
0.0129842 -0.0221477 0.0157642 
0.0125072 -0.022147 0.0156143 
0.012119 -0.0224212 0.0151805 
0.0116123 -0.0223294 0.0151257 
0.011165 -0.0224198 0.0148808 
0.0105992 -0.0221442 0.0150148 
0.0100927 -0.0220516 0.0149593 
0.00952687 -0.0217759 0.0150933 
0.00904986 -0.0217752 0.0149434 
0.00854333 -0.0216826 0.014888 
0.00806632 -0.0216819 0.0147381 
0.00758932 -0.0216812 0.0145882 
0.00711231 -0.0216805 0.0144383 
0.0066353 -0.0216798 0.0142884 
0.0061583 -0.0216791 0.0141386 
0.00568129 -0.0216783 0.0139887 
0.00526334 -0.0218614 0.01365 
0.00481586 -0.0219526 0.0134057 
0.0043686 -0.022043 0.0131607 
0.00398018 -0.022318 0.0127276 
0.00353292 -0.0224084 0.0124826 
0.00311496 -0.0225915 0.0121439 
0.00269723 -0.0227738 0.0118046 
0.00224974 -0.022865 0.0115603 
0.00192059 -0.023323 0.0109377 
0.00144359 -0.0233223 0.0107878 
0.00105538 -0.0235965 0.010354 
0.000607903 -0.0236877 0.0101097 
0.00021969 -0.0239619 0.00967593 
-0.000138989 -0.024328 0.00914773 
-0.000556728 -0.0245103 0.00880835 
-0.00085635 -0.0250602 0.00809133 
-0.00127409 -0.0252425 0.00775197 
-0.00169204 -0.0254256 0.00741326 
-0.00205072 -0.0257917 0.00688506 
-0.00243893 -0.0260659 0.00645127 
-0.00285688 -0.026249 0.00611259 
-0.00330415 -0.0263394 0.00586762 
-0.0037221 -0.0265225 0.00552891 
-0.00408078 -0.0268886 0.00500072 
-0.00452825 -0.0269798 0.00475642 
-0.00482767 -0.0275289 0.00403875 
-0.00512729 -0.0280788 0.00332172 
-0.0056043 -0.0280781 0.00317184 
-0.00599251 -0.0283523 0.00273806 
-0.00638072 -0.0286265 0.00230428 
-0.00668013 -0.0291757 0.0015866 
-0.0208648 -0.0265887 3.86963e-05 
-0.0221738 -0.0254868 0.000873863 
-0.0226508 -0.0254861 0.00072398 
-0.0231868 -0.0253017 0.000762904 
-0.0238709 -0.0246592 0.00127523 
-0.0244367 -0.0243835 0.00140924 
-0.0250023 -0.0241072 0.00154258 
-0.0256274 -0.0236485 0.0018661 
-0.0261339 -0.0235559 0.00181063 
-0.0265814 -0.0236471 0.00156633 
-0.027088 -0.0235544 0.00151087 
-0.0275354 -0.0236456 0.00126656 
-0.0280715 -0.0234611 0.00130551 
-0.0286668 -0.0230936 0.00153392 
-0.0292621 -0.0227261 0.00176235 
-0.0297984 -0.0225423 0.00180197 
-0.030305 -0.0224497 0.00174648 
-0.0308412 -0.022266 0.0017861 
-0.0313773 -0.0220815 0.00182502 
-0.0318838 -0.0219889 0.00176956 
-0.0324201 -0.0218051 0.00180917 
-0.0328378 -0.0219875 0.00146979 
-0.0333446 -0.0218956 0.00141499 
-0.0337919 -0.021986 0.00117002 
-0.0341803 -0.022261 0.00073691 
-0.0347163 -0.0220765 0.000775837 
-0.0351638 -0.0221677 0.000531555 
-0.0356408 -0.022167 0.000381671 
-0.0361178 -0.0221662 0.000231788 
-0.0366244 -0.0220737 0.000176303 
-0.0371014 -0.0220729 2.6419e-05 
-0.0376079 -0.0219803 -2.90457e-05 
-0.0381146 -0.0218885 -8.38427e-05 
-0.0386212 -0.0217959 -0.000139321 
-0.0391572 -0.0216114 -0.000100387 
-0.039664 -0.0215195 -0.000155184 
-0.0401705 -0.0214269 -0.000210669 
-0.0407066 -0.0212424 -0.000171728 
-0.0412133 -0.0211505 -0.000226525 
-0.0417494 -0.0209661 -0.000187598 
-0.0422857 -0.0207823 -0.000147989 
-0.0427905 -0.0206953 -0.000208805 
-0.0433232 -0.020522 -0.000180546 
-0.0438283 -0.0204357 -0.000240694 
-0.0443332 -0.0203487 -0.000301496 
-0.044838 -0.0202617 -0.000362318 
-0.045371 -0.0200892 -0.000333392 
-0.0459037 -0.0199159 -0.000305126 
-0.0464086 -0.0198289 -0.000365955 
-0.0469136 -0.0197426 -0.000426089 
-0.0474185 -0.0196556 -0.000486905 
-0.0479512 -0.0194823 -0.000458646 
-0.0484282 -0.0194816 -0.00060853 
-0.0489333 -0.0193953 -0.000668671 
-0.049466 -0.019222 -0.000640418 
-0.049943 -0.0192213 -0.000790302 
-0.0504479 -0.0191343 -0.000851118 
-0.0509528 -0.0190473 -0.000911927 
-0.0514298 -0.0190466 -0.00106181 
-0.0519349 -0.0189603 -0.00112194 
-0.0524119 -0.0189596 -0.00127183 
-0.0528889 -0.0189589 -0.00142171 
-0.0533659 -0.0189582 -0.0015716 
-0.0538707 -0.0188712 -0.00163242 
-0.0543477 -0.0188705 -0.0017823 
-0.0548247 -0.0188698 -0.00193219 
-0.0553018 -0.0188691 -0.00208207 
-0.0557788 -0.0188684 -0.00223195 
-0.0562836 -0.0187814 -0.00229277 
-0.0567328 -0.0188669 -0.00253172 
-0.0572098 -0.0188662 -0.0026816 
-0.0576589 -0.0189518 -0.00292055 
-0.0581359 -0.0189511 -0.00307043 
-0.0585849 -0.0190359 -0.00331007 
-0.059034 -0.0191215 -0.00354902 
-0.059511 -0.0191208 -0.00369891 
-0.0599602 -0.0192064 -0.00393786 
-0.0604093 -0.0192919 -0.0041768 
-0.0608585 -0.0193775 -0.00441576 
-0.0613074 -0.0194624 -0.00465539 
-0.0617565 -0.0195479 -0.00489433 
-0.0621778 -0.0197198 -0.00522237 
-0.0626268 -0.0198047 -0.005462 
-0.0630481 -0.0199765 -0.00579001 
-0.0634413 -0.020234 -0.00620778 
-0.0638626 -0.0204058 -0.00653581 
-0.0642558 -0.0206633 -0.00695357 
-0.0646457 -0.0209319 -0.00738201 
-0.0650931 -0.0210231 -0.00762631 
-0.0655406 -0.0211142 -0.00787059 
-0.0659583 -0.0212966 -0.00820998 
-0.0664058 -0.0213877 -0.00845427 
-0.0668533 -0.0214789 -0.00869855 
-0.067271 -0.0216613 -0.00903794 
-0.067689 -0.0218443 -0.00937663 
-0.0681363 -0.0219348 -0.0096216 
-0.0685247 -0.0222097 -0.0100547 
-0.0689129 -0.0224839 -0.0104885 
-0.0693011 -0.0227581 -0.0109223 
-0.0696893 -0.0230324 -0.0113561 
-0.0700775 -0.0233066 -0.0117899 
-0.0704067 -0.0237646 -0.0124125 
-0.0707949 -0.0240388 -0.0128463 
-0.0710945 -0.0245887 -0.0135633 
-0.0714532 -0.0249548 -0.0140915 
-0.0716047 -0.0259626 -0.0152819 
-0.071638 -0.0273373 -0.0168506 
-0.0718783 -0.0280702 -0.0177571 
-0.0722963 -0.0282533 -0.0180958 
-0.0726252 -0.0287106 -0.018719 
-0.0729544 -0.0291685 -0.0193416 
-0.073254 -0.0297184 -0.0200587 
-0.0734056 -0.0307263 -0.0212491 
-0.0736755 -0.0313673 -0.0220612 
-0.0739158 -0.0321003 -0.0229677 
-0.0739491 -0.0334749 -0.0245364 
-0.0735978 -0.0360419 -0.0273344 
-0.0736015 -0.0375085 -0.0289976 
-0.0738714 -0.0381496 -0.0298097 
0.028555 -0.0278279 0.0153879 
0.0279597 -0.0274604 0.0156164 
0.0272462 -0.0267254 0.0162224 
0.0267397 -0.0266328 0.0161669 
0.0260853 -0.0260815 0.0165842 
0.0255195 -0.0258058 0.0167182 
0.0249835 -0.0256214 0.0167571 
0.0244769 -0.0255288 0.0167017 
0.0238816 -0.0251612 0.0169301 
0.0233455 -0.0249768 0.016969 
0.0228093 -0.024793 0.0170086 
0.0223027 -0.0247004 0.0169532 
0.0217962 -0.0246078 0.0168977 
0.0212009 -0.0242403 0.0171261 
0.0206648 -0.0240558 0.0171651 
0.0201287 -0.0238713 0.017204 
0.019622 -0.0237794 0.0171492 
0.0191155 -0.0236868 0.0170937 
0.0185794 -0.0235023 0.0171327 
0.0181024 -0.0235016 0.0169828 
0.0175959 -0.023409 0.0169273 
0.0171189 -0.0234083 0.0167774 
0.0166123 -0.0233157 0.0167219 
0.0161353 -0.023315 0.0165721 
0.0156583 -0.0233143 0.0164222 
0.0151813 -0.0233136 0.0162723 
0.0147634 -0.0234966 0.0159336 
0.0143159 -0.0235878 0.0156893 
0.0138093 -0.0234952 0.0156338 
0.0133619 -0.0235864 0.0153895 
0.0129144 -0.0236776 0.0151452 
0.0124079 -0.023585 0.0150898 
0.0119308 -0.0235843 0.0149399 
0.0114243 -0.0234917 0.0148844 
0.0109473 -0.0234909 0.0147345 
0.0104703 -0.0234902 0.0145846 
0.0099933 -0.0234895 0.0144348 
0.00951629 -0.0234888 0.0142849 
0.00898023 -0.0233043 0.0143238 
0.00847348 -0.0232125 0.014269 
0.00799648 -0.0232117 0.0141191 
0.00751947 -0.023211 0.0139692 
0.00698341 -0.0230266 0.0140082 
0.00656546 -0.0232096 0.0136695 
0.0061182 -0.0233001 0.0134245 
0.00561145 -0.0232082 0.0133697 
0.00522324 -0.0234824 0.0129359 
0.00480529 -0.0236655 0.0125972 
0.00441708 -0.0239397 0.0121634 
0.00391055 -0.0238471 0.012108 
0.00352213 -0.024122 0.0116748 
0.00316344 -0.0244881 0.0111467 
0.00280455 -0.0248549 0.0106191 
0.00229802 -0.0247624 0.0105637 
0.00196887 -0.0252203 0.00994104 
0.00158066 -0.0254946 0.00950726 
0.00119223 -0.0257695 0.00907415 
0.000863082 -0.0262275 0.00845154 
0.000386076 -0.0262268 0.00830166 
-3.18741e-05 -0.0264098 0.00796296 
-0.000331498 -0.0269597 0.00724594 
-0.000838033 -0.0268671 0.00719047 
-0.00110813 -0.0275089 0.00637905 
-0.00164419 -0.0273244 0.00641798 
-0.00188476 -0.028058 0.00551216 
-0.00227297 -0.0283322 0.00507837 
-0.00280924 -0.0281485 0.00511797 
-0.00302007 -0.0289733 0.00411705 
-0.00385576 -0.0293387 0.00343899 
-0.00463239 -0.0298878 0.00257208 
-0.0247474 -0.0266477 -0.00011489 
-0.0254018 -0.0260964 0.000302353 
-0.0261154 -0.0253621 0.0009091 
-0.0267105 -0.0249938 0.00113685 
-0.0271285 -0.0251769 0.00079814 
-0.0276055 -0.0251762 0.000648257 
-0.0281415 -0.0249917 0.000687202 
-0.0284707 -0.0254497 6.45884e-05 
-0.0290956 -0.0249903 0.000387434 
-0.029484 -0.0252652 -4.56915e-05 
-0.0299905 -0.0251726 -0.000101162 
-0.0305266 -0.0249881 -6.22168e-05 
-0.030915 -0.0252631 -0.000495343 
-0.0314215 -0.0251705 -0.000550813 
-0.0320759 -0.0246192 -0.000133576 
-0.032612 -0.0244347 -9.46219e-05 
-0.0331778 -0.0241591 3.9392e-05 
-0.0337434 -0.0238827 0.000172732 
-0.0342796 -0.0236989 0.000212347 
-0.0347566 -0.0236982 6.2463e-05 
-0.0352337 -0.0236975 -8.74207e-05 
-0.0358288 -0.0233293 0.000140338 
-0.0363353 -0.0232367 8.48529e-05 
-0.0368716 -0.0230529 0.000124468 
-0.0373781 -0.0229603 6.89831e-05 
-0.0379437 -0.022684 0.000202336 
-0.0384504 -0.0225921 0.000147532 
-0.0389865 -0.0224076 0.000186473 
-0.0395226 -0.0222231 0.0002254 
-0.0400291 -0.0221305 0.000169929 
-0.0405654 -0.0219468 0.000209537 
-0.0411014 -0.0217623 0.000248471 
-0.041608 -0.0216697 0.000193007 
-0.0421442 -0.0214859 0.000232615 
-0.0426508 -0.0213933 0.000177137 
-0.0431852 -0.0212144 0.000210727 
-0.04369 -0.0211275 0.000149911 
-0.0441951 -0.0210412 8.97767e-05 
-0.0447278 -0.0208679 0.000118022 
-0.0452606 -0.0206946 0.000146281 
-0.0457654 -0.0206076 8.54591e-05 
-0.0462705 -0.0205213 2.53179e-05 
-0.0468032 -0.0203481 5.35635e-05 
-0.0473081 -0.020261 -7.24538e-06 
-0.0478129 -0.0201741 -6.8061e-05 
-0.0483178 -0.020087 -0.00012887 
-0.0488229 -0.0200008 -0.000189018 
-0.0493277 -0.0199138 -0.000249834 
-0.0498326 -0.0198268 -0.000310642 
-0.0503375 -0.0197398 -0.000371472 
-0.0508423 -0.0196528 -0.00043228 
-0.0513472 -0.0195658 -0.000493089 
-0.0518242 -0.0195651 -0.000642973 
-0.0523293 -0.0194788 -0.000703114 
-0.0528063 -0.0194781 -0.000852998 
-0.0532833 -0.0194774 -0.00100288 
-0.0537882 -0.0193904 -0.0010637 
-0.0542652 -0.0193897 -0.00121359 
-0.05477 -0.0193027 -0.0012744 
-0.055247 -0.0193019 -0.00142429 
-0.055724 -0.0193012 -0.00157417 
-0.056201 -0.0193005 -0.00172405 
-0.0566781 -0.0192998 -0.00187394 
-0.0571272 -0.0193854 -0.00211289 
-0.0576042 -0.0193847 -0.00226277 
-0.0580534 -0.0194702 -0.00250172 
-0.0585304 -0.0194695 -0.0026516 
-0.0589514 -0.0196407 -0.0029803 
-0.0594284 -0.01964 -0.00313019 
-0.0598776 -0.0197255 -0.00336915 
-0.0603267 -0.0198111 -0.00360808 
-0.0607759 -0.0198967 -0.00384704 
-0.061225 -0.0199822 -0.00408599 
-0.0616461 -0.0201534 -0.00441469 
-0.0620953 -0.020239 -0.00465364 
-0.0625444 -0.0203245 -0.0048926 
-0.0629657 -0.0204964 -0.00522061 
-0.0633868 -0.0206675 -0.0055493 
-0.0637802 -0.0209257 -0.0059664 
-0.0641734 -0.0211831 -0.00638416 
-0.0645635 -0.0214524 -0.00681192 
-0.0650108 -0.0215429 -0.00705689 
-0.0654583 -0.0216341 -0.00730118 
-0.0658762 -0.0218171 -0.00763989 
-0.0663237 -0.0219083 -0.00788418 
-0.0667712 -0.0219995 -0.00812846 
-0.0671889 -0.0221818 -0.00846785 
-0.0676364 -0.022273 -0.00871214 
-0.0680543 -0.022456 -0.00905084 
-0.0684425 -0.0227303 -0.00948463 
-0.068831 -0.0230052 -0.00991774 
-0.0692192 -0.0232794 -0.0103515 
-0.0696076 -0.0235543 -0.0107846 
-0.0699958 -0.0238286 -0.0112184 
-0.0703547 -0.0241954 -0.011746 
-0.0706543 -0.0247452 -0.012463 
-0.071013 -0.0251114 -0.0129912 
-0.0713717 -0.0254775 -0.0135194 
-0.0715532 -0.0263949 -0.014614 
-0.0715866 -0.0277703 -0.016182 
-0.0718863 -0.0283201 -0.0168991 
-0.0721859 -0.02887 -0.0176161 
